ply
format ascii 1.0
element vertex 642
property float x
property float y
property float z
property uchar red
property uchar green
property uchar blue
end_header
-0.02773219160735607 -0.018673008307814598 0.1848812699317932 255 255 255
-0.027437059208750725 -0.01872394047677517 0.1853855401277542 255 255 255
-0.02703406661748886 -0.018701648339629173 0.18516483902931213 255 255 255
-0.026702385395765305 -0.01872875541448593 0.18543322384357452 255 255 255
-0.026258356869220734 -0.018676716834306717 0.18491800129413605 255 255 255
-0.02574213035404682 -0.01857110857963562 0.18387235701084137 255 255 255
-0.025340646505355835 -0.018546415492892265 0.1836278736591339 255 255 255
-0.025035174563527107 -0.01859229803085327 0.18408216536045074 255 255 255
-0.024760503321886063 -0.018662767484784126 0.18477988243103027 255 255 255
-0.02451177127659321 -0.018755219876766205 0.18569524586200714 255 255 255
-0.024216528981924057 -0.01881438121199608 0.1862809956073761 255 255 255
-0.02390112914144993 -0.018859483301639557 0.18672756850719452 255 255 255
-0.023497188463807106 -0.018835047259926796 0.18648561835289001 255 255 255
-0.023224662989377975 -0.018916862085461617 0.18729567527770996 255 255 255
-0.022982610389590263 -0.019026588648557663 0.18838205933570862 255 255 255
-0.022717352956533432 -0.019120439887046814 0.18931128084659576 255 255 255
-0.02238559164106846 -0.019160546362400055 0.1897083967924118 255 255 255
-0.022017469629645348 -0.019170382991433144 0.1898057758808136 255 255 255
-0.021599512547254562 -0.01913641020655632 0.18946939706802368 255 255 255
-0.0211785938590765 -0.0190985519438982 0.18909458816051483 255 255 255
-0.020761555060744286 -0.019062882289290428 0.18874140083789825 255 255 255
-0.02039537951350212 -0.01907345838844776 0.18884611129760742 255 255 255
-0.02004716731607914 -0.019101545214653015 0.1891242116689682 255 255 255
-0.01965275965631008 -0.019085852429270744 0.18896883726119995 255 255 255
-0.019253481179475784 -0.01906472072005272 0.18875961005687714 255 255 255
-0.018834097310900688 -0.019022438675165176 0.188340961933136 255 255 255
-0.018427060917019844 -0.018991155549883842 0.18803124129772186 255 255 255
-0.018085181713104248 -0.019027119502425194 0.18838731944561005 255 255 255
-0.017798637971282005 -0.019124066457152367 0.18934720754623413 255 255 255
-0.017506031319499016 -0.019218577072024345 0.190282940864563 255 255 255
-0.017190827056765556 -0.01929192803800106 0.19100917875766754 255 255 255
-0.01684185117483139 -0.019329851493239403 0.19138465821743011 255 255 255
-0.01647578552365303 -0.019349470734596252 0.1915789097547531 255 255 255
-0.016122929751873016 -0.01938590407371521 0.19193965196609497 255 255 255
-0.015819421038031578 -0.01948489621281624 0.1929197609424591 255 255 255
-0.015542656183242798 -0.01962260529398918 0.19428320229053497 255 255 255
-0.015263152308762074 -0.019763823598623276 0.19568143784999847 255 255 255
-0.01494053564965725 -0.019855186343193054 0.1965859979391098 255 255 255
-0.014583535492420197 -0.01990455389022827 0.1970748007297516 255 255 255
-0.014203110709786415 -0.01992380991578102 0.19726543128490448 255 255 255
-0.013838300481438637 -0.019966689869761467 0.19769001007080078 255 255 255
-0.013522867113351822 -0.02008543536067009 0.19886569678783417 255 255 255
-0.013213989324867725 -0.0202214065939188 0.20021195709705353 255 255 255
-0.01291236188262701 -0.020377321168780327 0.20175565779209137 255 255 255
-0.012626544572412968 -0.020569048821926117 0.203653946518898 255 255 255
-0.012246049009263515 -0.020614182576537132 0.2041008174419403 255 255 255
-0.01182246208190918 -0.020587390288710594 0.20383554697036743 255 255 255
-0.01142702903598547 -0.02060946263372898 0.2040540874004364 255 255 255
-0.011060193181037903 -0.02068665623664856 0.20481838285923004 255 255 255
-0.010717472992837429 -0.020816629752516747 0.20610524713993073 255 255 255
-0.010351830162107944 -0.02091069705784321 0.20703661441802979 255 255 255
-0.009964131750166416 -0.020966192707419395 0.20758606493473053 255 255 255
-0.009551452472805977 -0.020971668884158134 0.20764027535915375 255 255 255
-0.00912214070558548 -0.020939458161592484 0.2073213756084442 255 255 255
-0.008712063543498516 -0.02095044031739235 0.20743009448051453 255 255 255
-0.008328472264111042 -0.021029390394687653 0.20821179449558258 255 255 255
-0.007951205596327782 -0.02113346941769123 0.20924225449562073 255 255 255
-0.007559800986200571 -0.021209442988038063 0.20999448001384735 255 255 255
-0.0071525657549500465 -0.02124732732772827 0.21036958694458008 255 255 255
-0.006728658452630043 -0.0212373286485672 0.21027058362960815 255 255 255
-0.006302838213741779 -0.021219557151198387 0.21009461581707 255 255 255
-0.005887524224817753 -0.021237140521407127 0.21026872098445892 255 255 255
-0.005479622166603804 -0.02128622680902481 0.21075470745563507 255 255 255
-0.005068457685410976 -0.021329756826162338 0.21118572354316711 255 255 255
-0.004653579089790583 -0.021364159882068634 0.21152633428573608 255 255 255
-0.004232923034578562 -0.021376261487603188 0.2116461545228958 255 255 255
-0.003807908622547984 -0.021366598084568977 0.21155047416687012 255 255 255
-0.0033808047883212566 -0.02134132944047451 0.2113002985715866 255 255 255
-0.002958337776362896 -0.021342294290661812 0.21130985021591187 255 255 255
-0.0025400116574019194 -0.02137843146920204 0.21166764199733734 255 255 255
-0.002120654098689556 -0.021418606862425804 0.2120654135942459 255 255 255
-0.001698248670436442 -0.02144039049744606 0.21228107810020447 255 255 255
-0.001273000380024314 -0.02142883837223053 0.21216672658920288 255 255 255
-0.0008469498716294765 -0.02138548530638218 0.2117374688386917 255 255 255
-0.00042276931344531476 -0.021349849179387093 0.21138465404510498 255 255 255
0.0 -0.021364497020840645 0.2115296572446823 255 255 255
0.00042398611549288034 -0.021411297842860222 0.2119930535554886 255 255 255
0.0008500289986841381 -0.02146323211491108 0.2125072479248047 255 255 255
0.001277109724469483 -0.02149801515042782 0.2128516286611557 255 255 255
0.0017027538269758224 -0.021497266367077827 0.21284422278404236 255 255 255
0.0021251856815069914 -0.021464375779032707 0.212518572807312 255 255 255
0.0025466112419962883 -0.021433977410197258 0.21221759915351868 255 255 255
0.00297303288243711 -0.02144830860197544 0.2123595029115677 255 255 255
0.0034024384804069996 -0.021477891132235527 0.21265240013599396 255 255 255
0.003835879033431411 -0.021523544564843178 0.21310439705848694 255 255 255
0.004278943873941898 -0.021608665585517883 0.21394719183444977 255 255 255
0.004702177830040455 -0.021587273105978966 0.21373537182807922 255 255 255
0.00511840870603919 -0.021539971232414246 0.2132670283317566 255 255 255
0.005529728718101978 -0.021480869501829147 0.2126818746328354 255 255 255
0.005957190878689289 -0.021488439291715622 0.21275682747364044 255 255 255
0.006383939646184444 -0.021492596715688705 0.21279799938201904 255 255 255
0.006807441357523203 -0.021485986188054085 0.21273253858089447 255 255 255
0.00722470274195075 -0.021461617201566696 0.2124912589788437 255 255 255
0.007625841535627842 -0.021394722163677216 0.21182893216609955 255 255 255
0.008019808679819107 -0.021315807476639748 0.21104760468006134 255 255 255
0.008416842669248581 -0.021252527832984924 0.21042107045650482 255 255 255
0.00883085373789072 -0.021236101165413857 0.21025842428207397 255 255 255
0.0092572420835495 -0.02124958112835884 0.21039187908172607 255 255 255
0.009683500975370407 -0.02126160077750683 0.21051089465618134 255 255 255
0.010099190287292004 -0.02125038020312786 0.2103998064994812 255 255 255
0.010496444068849087 -0.0212028156965971 0.20992887020111084 255 255 255
0.01088623609393835 -0.02114441990852356 0.20935069024562836 255 255 255
0.011292603798210621 -0.021121351048350334 0.20912228524684906 255 255 255
0.011722307652235031 -0.02114201709628105 0.20932690799236298 255 255 255
0.012168184854090214 -0.021189427003264427 0.20979629456996918 255 255 255
0.012619735673069954 -0.021243223920464516 0.21032893657684326 255 255 255
0.013059068471193314 -0.021273642778396606 0.2106301337480545 255 255 255
0.013481697998940945 -0.021275805309414864 0.21065153181552887 255 255 255
0.013895283453166485 -0.02126399427652359 0.21053460240364075 255 255 255
0.014326954260468483 -0.02127973921597004 0.21069049835205078 255 255 255
0.01476117130368948 -0.021298261359333992 0.21087387204170227 255 255 255
0.01524425484240055 -0.021384302526712418 0.21172577142715454 255 255 255
0.015761833637952805 -0.021512772887945175 0.21299774944782257 255 255 255
0.016185110434889793 -0.021509159356355667 0.21296197175979614 255 255 255
0.016559425741434097 -0.021442333236336708 0.21230033040046692 255 255 255
0.01690595969557762 -0.0213437769562006 0.2113245129585266 255 255 255
0.017214689403772354 -0.021203458309173584 0.2099352329969406 255 255 255
0.017486775293946266 -0.0210257638245821 0.2081758826971054 255 255 255
0.017833372578024864 -0.020943844690918922 0.2073647826910019 255 255 255
0.01817394606769085 -0.020858734846115112 0.2065221220254898 255 255 255
0.01840493455529213 -0.020654425024986267 0.2044992595911026 255 255 255
0.01866300031542778 -0.02048872970044613 0.20285870134830475 255 255 255
0.018923992291092873 -0.020333224907517433 0.20131906867027283 255 255 255
0.01923283189535141 -0.020234541967511177 0.20034199953079224 255 255 255
0.019621960818767548 -0.020222634077072144 0.2002241015434265 255 255 255
0.020009338855743408 -0.020209433510899544 0.20009338855743408 255 255 255
0.020379481837153435 -0.020179683342576027 0.1997988522052765 255 255 255
0.020690781995654106 -0.02009393274784088 0.19894982874393463 255 255 255
0.020946213975548744 -0.019958186894655228 0.19760580360889435 255 255 255
0.02121409960091114 -0.01983911171555519 0.1964268535375595 255 255 255
0.021501537412405014 -0.019742319360375404 0.19546851515769958 255 255 255
0.02184109017252922 -0.019695982336997986 0.1950097233057022 255 255 255
0.022197656333446503 -0.019666345790028572 0.19471628963947296 255 255 255
0.02251456491649151 -0.019603198394179344 0.1940910816192627 255 255 255
0.022792873904109 -0.019509153440594673 0.19315993785858154 255 255 255
0.02299247309565544 -0.01935199648141861 0.19160394370555878 255 255 255
0.023089535534381866 -0.019115107133984566 0.18925848603248596 255 255 255
0.023194387555122375 -0.018892202526330948 0.18705150485038757 255 255 255
0.023193055763840675 -0.01859125867486 0.1840718686580658 255 255 255
0.023189332336187363 -0.01829783245921135 0.1811666637659073 255 255 255
0.023134851828217506 -0.017973998561501503 0.17796039581298828 255 255 255
0.022934164851903915 -0.017548110336065292 0.17374366521835327 255 255 255
0.022675227373838425 -0.01709103025496006 0.16921812295913696 255 255 255
0.02237577736377716 -0.0166173055768013 0.1645277738571167 255 255 255
0.02220795676112175 -0.016253648325800896 0.16092722117900848 255 255 255
0.022323522716760635 -0.01610482856631279 0.15945373475551605 255 255 255
0.02233203686773777 -0.015884054824709892 0.15726786851882935 255 255 255
0.022386422380805016 -0.01570158824324608 0.15546126663684845 255 255 255
0.022289371117949486 -0.01541935931891203 0.15266692638397217 255 255 255
0.022211426869034767 -0.015157797373831272 0.1500772088766098 255 255 255
0.022225726395845413 -0.01496532279998064 0.14817151427268982 255 255 255
0.022187408059835434 -0.014742949046194553 0.14596979320049286 255 255 255
0.0220039002597332 -0.014431129209697247 0.14288246631622314 255 255 255
0.021921508014202118 -0.014192772097885609 0.14052249491214752 255 255 255
0.021799486130475998 -0.013935115188360214 0.137971431016922 255 255 255
0.021499577909708023 -0.013571609742939472 0.13437236845493317 255 255 255
-0.028829272836446762 -0.017617888748645782 0.17795847356319427 255 255 255
-0.028751181438565254 -0.017789792269468307 0.17969487607479095 255 255 255
-0.028580570593476295 -0.01790807954967022 0.18088968098163605 255 255 255
-0.028334543108940125 -0.01798153668642044 0.1816316843032837 255 255 255
-0.028178704902529716 -0.018114881590008736 0.18297860026359558 255 255 255
-0.027893448248505592 -0.018167443573474884 0.18350952863693237 255 255 255
-0.02771252766251564 -0.018290268257260323 0.18475018441677094 255 255 255
-0.027387242764234543 -0.01831984519958496 0.1850489377975464 255 255 255
-0.026978176087141037 -0.01829342171549797 0.1847820281982422 255 255 255
-0.026564855128526688 -0.01826333813369274 0.18447816371917725 255 255 255
-0.026168040931224823 -0.01824391633272171 0.18428197503089905 255 255 255
-0.025738563388586044 -0.018200840801000595 0.1838468760251999 255 255 255
-0.025345737114548683 -0.01818281225860119 0.18366476893424988 255 255 255
-0.025034107267856598 -0.0182233564555645 0.1840743124485016 255 255 255
-0.024752622470259666 -0.018287386745214462 0.18472106754779816 255 255 255
-0.024498283863067627 -0.01837371289730072 0.18559305369853973 255 255 255
-0.024190561845898628 -0.018422042950987816 0.18608124554157257 255 255 255
-0.02389710023999214 -0.018482914194464684 0.1866960972547531 255 255 255
-0.023487932980060577 -0.01845480315387249 0.18641215562820435 255 255 255
-0.02321135811507702 -0.018531648442149162 0.18718837201595306 255 255 255
-0.02294863946735859 -0.018622256815433502 0.1881036013364792 255 255 255
-0.0226732287555933 -0.01870541460812092 0.18894357979297638 255 255 255
-0.0223341453820467 -0.018737968057394028 0.18927240371704102 255 255 255
-0.021965952590107918 -0.01874680258333683 0.18936164677143097 255 255 255
-0.021568037569522858 -0.01873013749718666 0.18919330835342407 255 255 255
-0.021146565675735474 -0.018692053854465485 0.1888086348772049 255 255 255
-0.020730962976813316 -0.0186578668653965 0.18846330046653748 255 255 255
-0.020347191020846367 -0.01865158975124359 0.18839991092681885 255 255 255
-0.01999267004430294 -0.0186723992228508 0.18861009180545807 255 255 255
-0.019584232941269875 -0.01864268258213997 0.1883099228143692 255 255 255
-0.01919059455394745 -0.01862616278231144 0.1881430745124817 255 255 255
-0.018782854080200195 -0.018595026805996895 0.18782854080200195 255 255 255
-0.01837451569736004 -0.018562009558081627 0.18749505281448364 255 255 255
-0.018027571961283684 -0.018590932711958885 0.18778720498085022 255 255 255
-0.017721669748425484 -0.01866431161761284 0.1885284036397934 255 255 255
-0.017421018332242966 -0.01874653249979019 0.1893589049577713 255 255 255
-0.017094997689127922 -0.01880449615418911 0.18994441628456116 255 255 255
-0.016756929457187653 -0.018851544708013535 0.19041965901851654 255 255 255
-0.016398178413510323 -0.018876971676945686 0.1906764954328537 255 255 255
-0.016048261895775795 -0.01891402155160904 0.191050723195076 255 255 255
-0.015743369236588478 -0.019007237628102303 0.19199231266975403 255 255 255
-0.015458974987268448 -0.019130481407046318 0.19323718547821045 255 255 255
-0.015174128115177155 -0.01925947144627571 0.1945401132106781 255 255 255
-0.014845774509012699 -0.0193385761231184 0.1953391432762146 255 255 255
-0.014502962119877338 -0.019402610138058662 0.19598597288131714 255 255 255
-0.014133919030427933 -0.019434137269854546 0.19630442559719086 255 255 255
-0.01377708651125431 -0.019484737887978554 0.19681552052497864 255 255 255
-0.013457776978611946 -0.01959294080734253 0.19790849089622498 255 255 255
-0.013147748075425625 -0.01972162164747715 0.1992083042860031 255 255 255
-0.012825305573642254 -0.019839145243167877 0.200395405292511 255 255 255
-0.01250001136213541 -0.019959695637226105 0.20161308348178864 255 255 255
-0.01213197410106659 -0.020017758011817932 0.2021995633840561 255 255 255
-0.011724946089088917 -0.020013270899653435 0.2021542489528656 255 255 255
-0.011352771893143654 -0.02007007785141468 0.2027280628681183 255 255 255
-0.01099731307476759 -0.020161740481853485 0.203653946518898 255 255 255
-0.010652885772287846 -0.020281456410884857 0.20486319065093994 255 255 255
-0.010285977274179459 -0.020366236567497253 0.20571954548358917 255 255 255
-0.009902077727019787 -0.020423034206032753 0.2062932848930359 255 255 255
-0.009499087929725647 -0.020443689078092575 0.20650191605091095 255 255 255
-0.00907866470515728 -0.020426994189620018 0.20633327960968018 255 255 255
-0.008676047436892986 -0.020450683310627937 0.20657256245613098 255 255 255
-0.008294055238366127 -0.020527785643935204 0.20735137164592743 255 255 255
-0.007919162511825562 -0.02063150145113468 0.20839901268482208 255 255 255
-0.007527898997068405 -0.02070172131061554 0.20910829305648804 255 255 255
-0.007124956231564283 -0.020746197551488876 0.20955753326416016 255 255 255
-0.006706011947244406 -0.02074672281742096 0.20956286787986755 255 255 255
-0.006282682064920664 -0.020732851698994637 0.2094227373600006 255 255 255
-0.005867362022399902 -0.02074531465768814 0.20954863727092743 255 255 255
-0.0054574646055698395 -0.020780347287654877 0.20990249514579773 255 255 255
-0.005046854726970196 -0.020818276330828667 0.21028560400009155 255 255 255
-0.004632223397493362 -0.02084500715136528 0.21055562794208527 255 255 255
-0.004214901477098465 -0.020863763988018036 0.21074508130550385 255 255 255
-0.003792940638959408 -0.020861173048615456 0.21071892976760864 255 255 255
-0.0033683592919260263 -0.020841723307967186 0.21052245795726776 255 255 255
-0.0029474024195224047 -0.02084234543144703 0.21052874624729156 255 255 255
-0.0025300178676843643 -0.020872648805379868 0.2108348309993744 255 255 255
-0.002112281508743763 -0.02091158926486969 0.2112281620502472 255 255 255
-0.0016914516454562545 -0.02093171514570713 0.21143145859241486 255 255 255
-0.0012687642592936754 -0.020934609696269035 0.21146070957183838 255 255 255
-0.0008445956627838314 -0.02090374380350113 0.2111489176750183 255 255 255
-0.00042178743751719594 -0.02087847888469696 0.21089372038841248 255 255 255
0.0 -0.020887451246380806 0.21098436415195465 255 255 255
0.00042271820711903274 -0.020924551412463188 0.21135909855365753 255 255 255
0.000847121118567884 -0.020966246724128723 0.21178027987480164 255 255 255
0.0012723777908831835 -0.020994234830141068 0.21206296980381012 255 255 255
0.0016972781158983707 -0.02100381627678871 0.21215976774692535 255 255 255
0.0021190654952079058 -0.02097874879837036 0.2119065523147583 255 255 255
0.002540115499868989 -0.020955953747034073 0.21167629957199097 255 255 255
0.0029646740294992924 -0.020964480936527252 0.2117624282836914 255 255 255
0.003392487298697233 -0.020991014316678047 0.21203045547008514 255 255 255
0.003822285681962967 -0.021022571250796318 0.21234920620918274 255 255 255
0.004252453800290823 -0.02104964852333069 0.21262270212173462 255 255 255
0.004679990466684103 -0.021059956401586533 0.21272683143615723 255 255 255
0.005100436974316835 -0.02103930339217186 0.21251821517944336 255 255 255
0.0055193714797496796 -0.021016068756580353 0.21228352189064026 255 255 255
0.005943138152360916 -0.02101323753595352 0.21225492656230927 255 255 255
0.006367183290421963 -0.021011704578995705 0.21223944425582886 255 255 255
0.006785400677472353 -0.020992334932088852 0.21204377710819244 255 255 255
0.007202037610113621 -0.02097064070403576 0.21182464063167572 255 255 255
0.007606112398207188 -0.020916808396577835 0.21128089725971222 255 255 255
0.00800054520368576 -0.02084352634847164 0.21054066717624664 255 255 255
0.008395658805966377 -0.020779255777597427 0.20989146828651428 255 255 255
0.008802252821624279 -0.020748168230056763 0.20957745611667633 255 255 255
0.009224546141922474 -0.020755227655172348 0.20964877307415009 255 255 255
0.009643635712563992 -0.020754782482981682 0.20964425802230835 255 255 255
0.010061626322567463 -0.020752105861902237 0.2096172273159027 255 255 255
0.01046102773398161 -0.020712835714221 0.20922055840492249 255 255 255
0.010851291008293629 -0.02065918780863285 0.20867866277694702 255 255 255
0.011255001649260521 -0.02063417062163353 0.20842596888542175 255 255 255
0.011677482165396214 -0.02064412087202072 0.20852647721767426 255 255 255
0.01211799681186676 -0.020684167742729187 0.20893098413944244 255 255 255
0.012561231851577759 -0.020726032555103302 0.20935386419296265 255 255 255
0.01300556119531393 -0.02076694555580616 0.20976711809635162 255 255 255
0.013433114625513554 -0.020779350772500038 0.2098924219608307 255 255 255
0.013847204856574535 -0.020770808681845665 0.2098061442375183 255 255 255
0.014273446053266525 -0.02078045904636383 0.20990361273288727 255 255 255
0.014706047251820564 -0.02079855278134346 0.210086390376091 255 255 255
0.015147117897868156 -0.020827287808060646 0.21037663519382477 255 255 255
0.015633931383490562 -0.020915664732456207 0.211269348859787 255 255 255
0.01606958918273449 -0.02093275636434555 0.2114419788122177 255 255 255
0.016450310125947 -0.020879240706562996 0.2109014093875885 255 255 255
0.016815656796097755 -0.02080937661230564 0.21019570529460907 255 255 255
0.01714288257062435 -0.020696895197033882 0.20905955135822296 255 255 255
0.01741858571767807 -0.020529046654701233 0.20736411213874817 255 255 255
0.017732495442032814 -0.0204129908233881 0.20619182288646698 255 255 255
0.018072981387376785 -0.020332103595137596 0.2053747922182083 255 255 255
0.018386278301477432 -0.020224904641509056 0.20429196953773499 255 255 255
0.018649620935320854 -0.020068611949682236 0.2027132511138916 255 255 255
0.018917135894298553 -0.019923366606235504 0.20124612748622894 255 255 255
0.0192195326089859 -0.019820140674710274 0.20020344853401184 255 255 255
0.01960727386176586 -0.019807346165180206 0.2000742107629776 255 255 255
0.019987601786851883 -0.019787726923823357 0.19987602531909943 255 255 255
0.020369980484247208 -0.01977086253464222 0.19970569014549255 255 255 255
0.02070188894867897 -0.01970660500228405 0.19905662536621094 255 255 255
0.020967597141861916 -0.019582945853471756 0.19780753552913666 255 255 255
0.02124910242855549 -0.019478341564536095 0.1967509388923645 255 255 255
0.02153688482940197 -0.019383195787668228 0.1957898586988449 255 255 255
0.021885855123400688 -0.01934553124010563 0.19540941715240479 255 255 255
0.02223198674619198 -0.01930672489106655 0.19501742720603943 255 255 255
0.022568240761756897 -0.019260825589299202 0.19455380737781525 255 255 255
0.02282795123755932 -0.019152263179421425 0.1934572160243988 255 255 255
0.022980734705924988 -0.018959106877446175 0.19150611758232117 255 255 255
0.023106856271624565 -0.018750645220279694 0.18940044939517975 255 255 255
0.023223618045449257 -0.01854143664240837 0.18728724122047424 255 255 255
0.02322714403271675 -0.01824989914894104 0.1843424141407013 255 255 255
0.02320663258433342 -0.017948878929018974 0.18130181729793549 255 255 255
0.023181017488241196 -0.01765323616564274 0.17831552028656006 255 255 255
0.022988038137555122 -0.01724102906882763 0.17415180802345276 255 255 255
0.022746074944734573 -0.016804935410618782 0.16974683105945587 255 255 255
0.022457413375377655 -0.016347674652934074 0.16512803733348846 255 255 255
0.022295769304037094 -0.015994790941476822 0.16156354546546936 255 255 255
0.022414380684494972 -0.015850169584155083 0.1601027250289917 255 255 255
0.02243504673242569 -0.015641335397958755 0.15799328684806824 255 255 255
0.02253706008195877 -0.015494228340685368 0.15650735795497894 255 255 255
0.022437332198023796 -0.015214355662465096 0.15368035435676575 255 255 255
0.022387918084859848 -0.01497570239007473 0.15126971900463104 255 255 255
0.022391648963093758 -0.01477848831564188 0.14927765727043152 255 255 255
0.02235599234700203 -0.014560811221599579 0.14707890152931213 255 255 255
0.0221402607858181 -0.014233024790883064 0.14376792311668396 255 255 255
0.022103866562247276 -0.014027453027665615 0.1416914463043213 255 255 255
0.02201100066304207 -0.0137917036190629 0.13931013643741608 255 255 255
0.02178117074072361 -0.013477099128067493 0.13613231480121613 255 255 255
-0.028819844126701355 -0.017256326973438263 0.1779002696275711 255 255 255
-0.028716804459691048 -0.017409563064575195 0.17948003113269806 255 255 255
-0.028540246188640594 -0.01752154342830181 0.18063446879386902 255 255 255
-0.028290454298257828 -0.017590859904885292 0.18134906888008118 255 255 255
-0.028160421177744865 -0.017737407237291336 0.1828598827123642 255 255 255
-0.027836814522743225 -0.01776428148150444 0.1831369400024414 255 255 255
-0.027676500380039215 -0.0178974699229002 0.1845100075006485 255 255 255
-0.027345338836312294 -0.017922284081578255 0.1847658008337021 255 255 255
-0.026920748874545097 -0.017885703593492508 0.18438869714736938 255 255 255
-0.026491375640034676 -0.01784488558769226 0.18396788835525513 255 255 255
-0.026113806292414665 -0.017838304862380028 0.18390004336833954 255 255 255
-0.025694996118545532 -0.01780296117067337 0.18353568017482758 255 255 255
-0.02531575970351696 -0.0177944116294384 0.18344753980636597 255 255 255
-0.025013389065861702 -0.01784043200314045 0.18392197787761688 255 255 255
-0.024727309122681618 -0.017899617552757263 0.18453215062618256 255 255 255
-0.024458514526486397 -0.01797330193221569 0.18529178202152252 255 255 255
-0.02412407286465168 -0.018000271171331406 0.18556979298591614 255 255 255
-0.02384044975042343 -0.018066590651869774 0.18625351786613464 255 255 255
-0.023432519286870956 -0.018039319664239883 0.18597237765789032 255 255 255
-0.023170603439211845 -0.018125390633940697 0.18685969710350037 255 255 255
-0.02291158400475979 -0.018216587603092194 0.187799870967865 255 255 255
-0.022635025903582573 -0.01829664409160614 0.18862520158290863 255 255 255
-0.022286945953965187 -0.01832062378525734 0.18887241184711456 255 255 255
-0.021906279027462006 -0.018318181857466698 0.18884722888469696 255 255 255
-0.0215167049318552 -0.01830807328224182 0.18874302506446838 255 255 255
-0.021099362522363663 -0.018273556604981422 0.1883871704339981 255 255 255
-0.02069692686200142 -0.018250927329063416 0.18815387785434723 255 255 255
-0.02030760608613491 -0.01823923923075199 0.18803338706493378 255 255 255
-0.0199522003531456 -0.018258146941661835 0.1882283091545105 255 255 255
-0.019527006894350052 -0.018212689086794853 0.187759667634964 255 255 255
-0.019122909754514694 -0.018185511231422424 0.18747949600219727 255 255 255
-0.018719244748353958 -0.01815766654908657 0.18719244003295898 255 255 255
-0.018317393958568573 -0.018130483105778694 0.1869121938943863 255 255 255
-0.017973339185118675 -0.018160562962293625 0.18722228705883026 255 255 255
-0.017656557261943817 -0.018220065161585808 0.1878357231616974 255 255 255
-0.017352169379591942 -0.018295221030712128 0.18861053884029388 255 255 255
-0.017010735347867012 -0.018333790823817253 0.18900816142559052 255 255 255
-0.016670668497681618 -0.018375622108578682 0.18943940103054047 255 255 255
-0.01631375588476658 -0.018400399014353752 0.1896948367357254 255 255 255
-0.015973856672644615 -0.018446000292897224 0.1901649683713913 255 255 255
-0.015674976631999016 -0.018542351201176643 0.1911582499742508 255 255 255
-0.01538646686822176 -0.018656091764569283 0.19233083724975586 255 255 255
-0.015095468610525131 -0.01877257041633129 0.19353164732456207 255 255 255
-0.014757227152585983 -0.018834881484508514 0.19417403638362885 255 255 255
-0.014418810606002808 -0.01890033297240734 0.19484879076480865 255 255 255
-0.014056968502700329 -0.018937859684228897 0.19523566961288452 255 255 255
-0.013712071813642979 -0.019001012668013573 0.1958867311477661 255 255 255
-0.013396941125392914 -0.019110342487692833 0.19701384007930756 255 255 255
-0.013089146465063095 -0.019237078726291656 0.1983204036951065 255 255 255
-0.012763760052621365 -0.019345073029398918 0.19943374395370483 255 255 255
-0.01242270227521658 -0.019435515627264977 0.20036615431308746 255 255 255
-0.012055665254592896 -0.019489992409944534 0.2009277492761612 255 255 255
-0.011667834594845772 -0.01951344683766365 0.20116955041885376 255 255 255
-0.011302625760436058 -0.019577762112021446 0.2018326073884964 255 255 255
-0.0109481792896986 -0.019666174426674843 0.20274405181407928 255 255 255
-0.010604324750602245 -0.019781142473220825 0.20392930507659912 255 255 255
-0.010233676992356777 -0.01985333301126957 0.20467352867126465 255 255 255
-0.009847407229244709 -0.019899969920516014 0.20515431463718414 255 255 255
-0.009448756463825703 -0.019924553111195564 0.2054077535867691 255 255 255
-0.009035386145114899 -0.01991891860961914 0.20534968376159668 255 255 255
-0.008642998524010181 -0.01996120996773243 0.20578567683696747 255 255 255
-0.008264570496976376 -0.020041581243276596 0.20661425590515137 255 255 255
-0.007890994660556316 -0.020142801105976105 0.20765775442123413 255 255 255
-0.007497221697121859 -0.02020084671676159 0.20825615525245667 255 255 255
-0.0070943995378911495 -0.020239904522895813 0.20865881443023682 255 255 255
-0.006678193341940641 -0.020243274047970772 0.20869354903697968 255 255 255
-0.006258751265704632 -0.020236629992723465 0.20862504839897156 255 255 255
-0.005846560932695866 -0.02025415748357773 0.20880575478076935 255 255 255
-0.00543759111315012 -0.020286398008465767 0.20913812518119812 255 255 255
-0.0050279004499316216 -0.02032109722495079 0.20949584245681763 255 255 255
-0.004611992742866278 -0.020334696397185326 0.20963603258132935 255 255 255
-0.004195478279143572 -0.020348070189356804 0.2097739279270172 255 255 255
-0.0037752497009932995 -0.02034440077841282 0.20973609387874603 255 255 255
-0.0033542143646627665 -0.02033492550253868 0.20963840186595917 255 255 255
-0.002936937613412738 -0.02034878171980381 0.20978125929832458 255 255 255
-0.002521601039916277 -0.020382942631840706 0.2101334184408188 255 255 255
-0.0021050446666777134 -0.020418932661414146 0.2105044573545456 255 255 255
-0.0016846435610204935 -0.020426301285624504 0.21058043837547302 255 255 255
-0.0012638266198337078 -0.020431863144040108 0.21063776314258575 255 255 255
-0.0008416409837082028 -0.02040979452431202 0.2104102522134781 255 255 255
-0.00042058233520947397 -0.02039824239909649 0.21029116213321686 255 255 255
0.0 -0.020413091406226158 0.21044424176216125 255 255 255
0.00042171988752670586 -0.02045341581106186 0.21085993945598602 255 255 255
0.0008447589352726936 -0.020485403016209602 0.21118973195552826 255 255 255
0.0012677498161792755 -0.02049528807401657 0.21129164099693298 255 255 255
0.0016909100813791156 -0.020502284169197083 0.2113637626171112 255 255 255
0.002111640991643071 -0.020482918247580528 0.21116410195827484 255 255 255
0.0025325322058051825 -0.020471302792429924 0.21104435622692108 255 255 255
0.002956305630505085 -0.020482974126935005 0.2111646980047226 255 255 255
0.003383579896762967 -0.020512953400611877 0.211473748087883 255 255 255
0.003810905385762453 -0.020536545664072037 0.21171696484088898 255 255 255
0.004237571265548468 -0.020552219823002815 0.21187855303287506 255 255 255
0.00466363038867712 -0.020562369376420975 0.21198320388793945 255 255 255
0.005084024276584387 -0.020547932013869286 0.21183434128761292 255 255 255
0.005504883825778961 -0.020537450909614563 0.21172629296779633 255 255 255
0.0059274365194141865 -0.02053433284163475 0.2116941511631012 255 255 255
0.00634960038587451 -0.020530374720692635 0.21165333688259125 255 255 255
0.006761161610484123 -0.020494772121310234 0.21128630638122559 255 255 255
0.007172448560595512 -0.020462574437260628 0.21095436811447144 255 255 255
0.007575385272502899 -0.020411454141139984 0.21042735874652863 255 255 255
0.007970091886818409 -0.02034470997750759 0.20973926782608032 255 255 255
0.008365780115127563 -0.02028701640665531 0.2091445028781891 255 255 255
0.008769424632191658 -0.020253194496035576 0.20879583060741425 255 255 255
0.00918897520750761 -0.020257513970136642 0.20884034037590027 255 255 255
0.009596813470125198 -0.020236758515238762 0.2086263746023178 255 255 255
0.01001050416380167 -0.020229561254382133 0.20855216681957245 255 255 255
0.010409105569124222 -0.020193662494421005 0.20818209648132324 255 255 255
0.010800733231008053 -0.020147521048784256 0.20770640671253204 255 255 255
0.011205037124454975 -0.020127564668655396 0.20750068128108978 255 255 255
0.011627987958490849 -0.02014133706688881 0.20764264464378357 255 255 255
0.012065485119819641 -0.020178483799099922 0.20802560448646545 255 255 255
0.012495268136262894 -0.020200680941343307 0.20825445652008057 255 255 255
0.01293543353676796 -0.020237693563103676 0.20863601565361023 255 255 255
0.013363786041736603 -0.020254487171769142 0.20880915224552155 255 255 255
0.013784073293209076 -0.020258411765098572 0.20884959399700165 255 255 255
0.01421185489743948 -0.020272793248295784 0.20899786055088043 255 255 255
0.014646725729107857 -0.02029617689549923 0.2092389315366745 255 255 255
0.01509088184684515 -0.020330771803855896 0.20959559082984924 255 255 255
0.015555255115032196 -0.020389998331665993 0.21020615100860596 255 255 255
0.015960441902279854 -0.020370565354824066 0.21000581979751587 255 255 255
0.01631251536309719 -0.02028607577085495 0.2091348022222519 255 255 255
0.016669852659106255 -0.020212197676301003 0.20837317407131195 255 255 255
0.01702882908284664 -0.02014385722577572 0.20766864717006683 255 255 255
0.017359770834445953 -0.020046403631567955 0.20666395127773285 255 255 255
0.017683640122413635 -0.019945500418543816 0.20562371611595154 255 255 255
0.018016086891293526 -0.019858641549944878 0.20472826063632965 255 255 255
0.01831636391580105 -0.01974097080528736 0.2035151571035385 255 255 255
0.018584074452519417 -0.01959407888352871 0.20200079679489136 255 255 255
0.0188716072589159 -0.019473891705274582 0.20076178014278412 255 255 255
0.019180918112397194 -0.01938071846961975 0.1998012214899063 255 255 255
0.019574981182813644 -0.019375238567590714 0.19974471628665924 255 255 255
0.019940204918384552 -0.019341999664902687 0.19940204918384552 255 255 255
0.020320666953921318 -0.01932455599308014 0.19922222197055817 255 255 255
0.020659497007727623 -0.019268954172730446 0.19864900410175323 255 255 255
0.020936552435159683 -0.019158920273184776 0.1975146383047104 255 255 255
0.021237831562757492 -0.01907471939921379 0.196646586060524 255 255 255
0.021545927971601486 -0.01899958960711956 0.19587206840515137 255 255 255
0.021916627883911133 -0.018981365486979485 0.19568417966365814 255 255 255
0.022239627316594124 -0.018923191353678703 0.19508445262908936 255 255 255
0.02257128246128559 -0.018874263390898705 0.19458003342151642 255 255 255
0.022826476022601128 -0.018764134496450424 0.19344469904899597 255 255 255
0.022990670055150986 -0.018584122881293297 0.19158890843391418 255 255 255
0.023115547373890877 -0.01837875321507454 0.18947169184684753 255 255 255
0.023237621411681175 -0.01817781664431095 0.18740017712116241 255 255 255
0.023259121924638748 -0.017905833199620247 0.1845962107181549 255 255 255
0.023211875930428505 -0.017590250819921494 0.18134278059005737 255 255 255
0.023183105513453484 -0.01729816384613514 0.17833158373832703 255 255 255
0.022990943863987923 -0.016894860193133354 0.17417381703853607 255 255 255
0.02278265357017517 -0.01649191975593567 0.17001980543136597 255 255 255
0.022515637800097466 -0.016058947890996933 0.1655561625957489 255 255 255
0.02237122505903244 -0.015724701806902885 0.1621103286743164 255 255 255
0.022496869787573814 -0.01558711752295494 0.16069193184375763 255 255 255
0.02250874601304531 -0.015375692397356033 0.15851229429244995 255 255 255
0.0226289015263319 -0.01524308044463396 0.157145157456398 255 255 255
0.02252224273979664 -0.014963408932089806 0.15426194667816162 255 255 255
0.022527996450662613 -0.014764971099793911 0.15221619606018066 255 255 255
0.02253185398876667 -0.014570599421858788 0.150212362408638 255 255 255
0.022509831935167313 -0.014364827424287796 0.14809100329875946 255 255 255
0.022284045815467834 -0.014036055654287338 0.14470160007476807 255 255 255
0.022251134738326073 -0.01383564155548811 0.14263547956943512 255 255 255
0.022149428725242615 -0.013598067685961723 0.14018626511096954 255 255 255
0.02199878729879856 -0.01333676464855671 0.13749241828918457 255 255 255
-0.028831982985138893 -0.016907643526792526 0.17797520756721497 255 255 255
-0.028716793283820152 -0.017050595954060555 0.1794799566268921 255 255 255
-0.028538184240460396 -0.01715903729200363 0.1806214302778244 255 255 255
-0.028306065127253532 -0.017237666994333267 0.18144913017749786 255 255 255
-0.028198707848787308 -0.01739530824124813 0.18310849368572235 255 255 255
-0.027862166985869408 -0.017413854598999023 0.18330372869968414 255 255 255
-0.027719149366021156 -0.017555460333824158 0.1847943216562271 255 255 255
-0.027477998286485672 -0.01763790473341942 0.1856621503829956 255 255 255
-0.026946451514959335 -0.017533648759126663 0.1845647394657135 255 255 255
-0.026516927406191826 -0.017493806779384613 0.18414533138275146 255 255 255
-0.026146629825234413 -0.01749246194958687 0.1841311901807785 255 255 255
-0.02572896145284176 -0.01745893806219101 0.1837783008813858 255 255 255
-0.025357510894536972 -0.017456257715821266 0.18375007808208466 255 255 255
-0.02505757287144661 -0.01750345155596733 0.18424686789512634 255 255 255
-0.024758877232670784 -0.0175529345870018 0.1847677379846573 255 255 255
-0.024475544691085815 -0.017614975571632385 0.18542078137397766 255 255 255
-0.024137483909726143 -0.017638931050896645 0.18567295372486115 255 255 255
-0.023856384679675102 -0.01770590990781784 0.18637800216674805 255 255 255
-0.02344791777431965 -0.017678985372185707 0.18609458208084106 255 255 255
-0.02319313772022724 -0.01776893623173237 0.18704143166542053 255 255 255
-0.0229356549680233 -0.01785973086953163 0.18799717724323273 255 255 255
-0.02265198901295662 -0.017932822927832603 0.18876656889915466 255 255 255
-0.022297466173768044 -0.017951348796486855 0.18896158039569855 255 255 255
-0.02192101813852787 -0.017952557653188705 0.1889743059873581 255 255 255
-0.021533749997615814 -0.01794479228556156 0.18889254331588745 255 255 255
-0.021122056990861893 -0.017916031181812286 0.18858979642391205 255 255 255
-0.02072237804532051 -0.01789659820497036 0.1883852481842041 255 255 255
-0.02032698504626751 -0.017880218103528023 0.1882128268480301 255 255 255
-0.01996343396604061 -0.01789175719022751 0.18833428621292114 255 255 255
-0.01953076384961605 -0.01784060150384903 0.18779580295085907 255 255 255
-0.019125046208500862 -0.017812542617321014 0.18750044703483582 255 255 255
-0.01872006617486477 -0.017784062772989273 0.187200665473938 255 255 255
-0.018321016803383827 -0.017760170623660088 0.18694914877414703 255 255 255
-0.01797650381922722 -0.01778925023972988 0.18725524842739105 255 255 255
-0.017651669681072235 -0.017839454114437103 0.18778373301029205 255 255 255
-0.017337724566459656 -0.01790308579802513 0.1884535253047943 255 255 255
-0.016987018287181854 -0.017930742353200912 0.1887446492910385 255 255 255
-0.016645602881908417 -0.017969684675335884 0.18915458023548126 255 255 255
-0.016286062076687813 -0.017990417778491974 0.18937282264232635 255 255 255
-0.01595044881105423 -0.018039198592305183 0.18988628685474396 255 255 255
-0.015651116147637367 -0.018132390454411507 0.19086727499961853 255 255 255
-0.015356149524450302 -0.018235428258776665 0.19195187091827393 255 255 255
-0.01505680475383997 -0.018338417634367943 0.19303596019744873 255 255 255
-0.014715581201016903 -0.018394475802779198 0.1936260610818863 255 255 255
-0.014379981905221939 -0.01846078597009182 0.1943240761756897 255 255 255
-0.014021242037415504 -0.018500249832868576 0.1947394758462906 255 255 255
-0.0136827751994133 -0.018569480627775192 0.1954682171344757 255 255 255
-0.013369989581406116 -0.018678661435842514 0.1966174840927124 255 255 255
-0.01306038536131382 -0.018799040466547012 0.19788463413715363 255 255 255
-0.012729997746646404 -0.018896089866757393 0.19890621304512024 255 255 255
-0.012381068430840969 -0.018970990553498268 0.1996946483850479 255 255 255
-0.012023737654089928 -0.019037583842873573 0.2003956288099289 255 255 255
-0.011638078838586807 -0.01906237006187439 0.20065653324127197 255 255 255
-0.011277136392891407 -0.019130855798721313 0.20137743651866913 255 255 255
-0.01092443522065878 -0.019218914210796356 0.20230436325073242 255 255 255
-0.01057775504887104 -0.01932474412024021 0.20341835916042328 255 255 255
-0.010203204117715359 -0.019386086612939835 0.20406408607959747 255 255 255
-0.009817016310989857 -0.019429512321949005 0.20452117919921875 255 255 255
-0.009421434253454208 -0.019457310438156128 0.20481379330158234 255 255 255
-0.00901336781680584 -0.019460679963231087 0.2048492729663849 255 255 255
-0.008627123199403286 -0.019513729959726334 0.20540767908096313 255 255 255
-0.00825025700032711 -0.019594358280301094 0.20625640451908112 255 255 255
-0.00787601713091135 -0.01969004236161709 0.20726360380649567 255 255 255
-0.007481259293854237 -0.019742213189601898 0.20781275629997253 255 255 255
-0.007079550996422768 -0.019781099632382393 0.20822209119796753 255 255 255
-0.006664779968559742 -0.019786065444350243 0.20827437937259674 255 255 255
-0.006246582604944706 -0.019780846312642097 0.20821942389011383 255 255 255
-0.005836402531713247 -0.01980208046734333 0.20844294130802155 255 255 255
-0.00542816799134016 -0.01983369141817093 0.20877568423748016 255 255 255
-0.005017905496060848 -0.019862543791532516 0.20907939970493317 255 255 255
-0.004601561930030584 -0.01987037993967533 0.2091619074344635 255 255 255
-0.004185974132269621 -0.019883377477526665 0.20929870009422302 255 255 255
-0.0037666100542992353 -0.019879331812262535 0.209256112575531 255 255 255
-0.0033474601805210114 -0.01987554505467415 0.20921626687049866 255 255 255
-0.0029321254696696997 -0.01989656686782837 0.2094375491142273 255 255 255
-0.0025177313946187496 -0.019932040944695473 0.20981095731258392 255 255 255
-0.002101674908772111 -0.01996590942144394 0.21016748249530792 255 255 255
-0.0016817954601719975 -0.019971320405602455 0.2102244347333908 255 255 255
-0.0012619087938219309 -0.01998022012412548 0.21031811833381653 255 255 255
-0.0008405037806369364 -0.019961964339017868 0.21012593805789948 255 255 255
-0.000420147436670959 -0.019957004114985466 0.21007372438907623 255 255 255
0.0 -0.019976098090410233 0.21027472615242004 255 255 255
0.00042143266182392836 -0.02001805044710636 0.2107163369655609 255 255 255
0.0008439801167696714 -0.02004452981054783 0.21099503338336945 255 255 255
0.0012662536464631557 -0.020049015060067177 0.21104227006435394 255 255 255
0.0016889816615730524 -0.02005665749311447 0.21112270653247833 255 255 255
0.002109514083713293 -0.02004038169980049 0.21095140278339386 255 255 255
0.002530735917389393 -0.020034994930028915 0.21089467406272888 255 255 255
0.002954916562885046 -0.020051218569278717 0.21106545627117157 255 255 255
0.0033820962999016047 -0.02008119598031044 0.21138101816177368 255 255 255
0.0038083523977547884 -0.020099638029932976 0.21157513558864594 255 255 255
0.004234796389937401 -0.020115284249186516 0.21173983812332153 255 255 255
0.004659350495785475 -0.0201199222356081 0.21178865432739258 255 255 255
0.005079548805952072 -0.020106548443436623 0.2116478681564331 255 255 255
0.005501679610460997 -0.02010229043662548 0.2116030603647232 255 255 255
0.005923116579651833 -0.02009628899395466 0.2115398794412613 255 255 255
0.006343043874949217 -0.02008630521595478 0.21143479645252228 255 255 255
0.006750160828232765 -0.02003953978419304 0.21094252169132233 255 255 255
0.007157634943723679 -0.019999273121356964 0.21051867306232452 255 255 255
0.007557351142168045 -0.019943010061979294 0.20992642641067505 255 255 255
0.007950389757752419 -0.01987597532570362 0.2092207819223404 255 255 255
0.008347386494278908 -0.01982504315674305 0.20868466794490814 255 255 255
0.008752204477787018 -0.01979665644466877 0.20838584005832672 255 255 255
0.0091710751876235 -0.0198011863976717 0.20843352377414703 255 255 255
0.009575163945555687 -0.019774796441197395 0.20815573632717133 255 255 255
0.009987805970013142 -0.019767533987760544 0.20807930827140808 255 255 255
0.010385406203567982 -0.019732270389795303 0.20770812034606934 255 255 255
0.010778424330055714 -0.019691351801156998 0.20727738738059998 255 255 255
0.011185328476130962 -0.019677892327308655 0.20713570713996887 255 255 255
0.011609980836510658 -0.019695503637194633 0.20732107758522034 255 255 255
0.012043999508023262 -0.01972723938524723 0.2076551616191864 255 255 255
0.01246772613376379 -0.019740566611289978 0.2077954262495041 255 255 255
0.012905471958220005 -0.019774513319134712 0.20815277099609375 255 255 255
0.013332911767065525 -0.01979104056954384 0.20832674205303192 255 255 255
0.013756031170487404 -0.019800348207354546 0.20842471718788147 255 255 255
0.014186976477503777 -0.019820040091872215 0.20863200724124908 255 255 255
0.014631110243499279 -0.01985650695860386 0.2090158611536026 255 255 255
0.01510009728372097 -0.0199237409979105 0.2097235769033432 255 255 255
0.015540238469839096 -0.01995030604302883 0.21000322699546814 255 255 255
0.01590592972934246 -0.019882412627339363 0.20928855240345 255 255 255
0.016240404918789864 -0.019779980182647705 0.2082103192806244 255 255 255
0.016597654670476913 -0.019709715619683266 0.20747068524360657 255 255 255
0.01699001155793667 -0.01968354918062687 0.2071952521800995 255 255 255
0.017359672114253044 -0.019632961601018906 0.20666275918483734 255 255 255
0.01771460473537445 -0.019568460062146187 0.20598378777503967 255 255 255
0.01801503263413906 -0.019448045641183853 0.2047162652015686 255 255 255
0.01828749105334282 -0.0193034615367651 0.20319433510303497 255 255 255
0.01856216788291931 -0.019167454913258553 0.20176269114017487 255 255 255
0.01886472851037979 -0.019065415486693382 0.20068860054016113 255 255 255
0.01917901262640953 -0.018979230895638466 0.1997813731431961 255 255 255
0.019574422389268875 -0.018975205719470978 0.199739009141922 255 255 255
0.019936900585889816 -0.01894005574285984 0.19936901330947876 255 255 255
0.020322592929005623 -0.018927905708551407 0.19924111664295197 255 255 255
0.020669125020503998 -0.01888045109808445 0.1987415850162506 255 255 255
0.020959952846169472 -0.018784863874316216 0.19773541390895844 255 255 255
0.021276656538248062 -0.018715577200055122 0.19700607657432556 255 255 255
0.0215968769043684 -0.018651848658919334 0.19633524119853973 255 255 255
0.021976839751005173 -0.018641069531440735 0.19622178375720978 255 255 255
0.02228979580104351 -0.018574828281998634 0.19552451372146606 255 255 255
0.022624943405389786 -0.018529048189520836 0.19504261016845703 255 255 255
0.022877324372529984 -0.01841818541288376 0.19387564063072205 255 255 255
0.023047680035233498 -0.018246080726385117 0.19206400215625763 255 255 255
0.02318132482469082 -0.018051031976938248 0.19001084566116333 255 255 255
0.023316074162721634 -0.01786312274634838 0.188032865524292 255 255 255
0.023366976529359818 -0.017617957666516304 0.1854521930217743 255 255 255
0.0233199130743742 -0.017307749018073082 0.18218682706356049 255 255 255
0.023268571123480797 -0.01700395531952381 0.1789890080690384 255 255 255
0.023084478452801704 -0.016613828018307686 0.1748824119567871 255 255 255
0.022903429344296455 -0.01623750664293766 0.17092111706733704 255 255 255
0.02265532873570919 -0.015825413167476654 0.16658329963684082 255 255 255
0.02252453938126564 -0.015506023541092873 0.1632212996482849 255 255 255
0.022664673626422882 -0.015379599295556545 0.16189052164554596 255 255 255
0.022676831111311913 -0.015171119011938572 0.15969598293304443 255 255 255
0.02280464395880699 -0.01504473015666008 0.15836557745933533 255 255 255
0.02270657755434513 -0.014774828217923641 0.15552450716495514 255 255 255
0.022745832800865173 -0.014600365422666073 0.15368805825710297 255 255 255
0.022781716659665108 -0.014428420923650265 0.15187811851501465 255 255 255
0.022866973653435707 -0.014291858300566673 0.15044061839580536 255 255 255
0.022639740258455276 -0.013966073282063007 0.14701129496097565 255 255 255
0.022504104301333427 -0.013704422861337662 0.1442570835351944 255 255 255
0.02239597961306572 -0.013465936295688152 0.14174669981002808 255 255 255
0.022230766713619232 -0.013199517503380775 0.13894228637218475 255 255 255
