ply
format ascii 1.0
element vertex 662
property float x
property float y
property float z
property uchar red
property uchar green
property uchar blue
end_header
-0.26571542024612427 -0.05611381679773331 0.8252031803131104 81 81 83
-0.26334112882614136 -0.05595999211072922 0.8229410648345947 226 227 228
-0.26097655296325684 -0.05580630525946617 0.8206809759140015 255 255 255
-0.25914132595062256 -0.055764589458703995 0.8200675249099731 255 255 255
-0.2576320469379425 -0.05579293146729469 0.8204842805862427 159 161 164
-0.25623634457588196 -0.05584638565778732 0.8212704062461853 0 0 0
-0.2547859251499176 -0.055888526141643524 0.821890115737915 27 27 27
-0.25326988101005554 -0.05591672658920288 0.8223047852516174 124 125 127
-0.2519068717956543 -0.055979300290346146 0.8232250213623047 226 227 228
-0.2506001889705658 -0.056055303663015366 0.8243427276611328 255 255 255
-0.24914593994617462 -0.05609908327460289 0.8249865174293518 255 255 255
-0.24748817086219788 -0.05609732121229172 0.8249605894088745 255 255 255
-0.24573203921318054 -0.056073080748319626 0.8246041536331177 255 255 255
-0.24449865520000458 -0.056168608367443085 0.8260089755058289 255 255 255
-0.24358102679252625 -0.056338466703891754 0.8285068869590759 255 255 255
-0.24241508543491364 -0.05645282566547394 0.8301886320114136 255 255 255
-0.24068933725357056 -0.056437499821186066 0.829963207244873 114 115 118
-0.23895186185836792 -0.056419190019369125 0.8296939730644226 0 0 0
-0.23712435364723206 -0.05637921765446663 0.8291061520576477 0 0 0
-0.2349846214056015 -0.05626392364501953 0.8274106383323669 0 0 0
-0.23242005705833435 -0.056044552475214005 0.8241845965385437 0 0 0
-0.22887027263641357 -0.05558278411626816 0.8173938393592834 148 150 153
-0.2253313958644867 -0.05511702969670296 0.8105445504188538 255 255 255
-0.22266773879528046 -0.05486016720533371 0.8067671656608582 255 255 255
-0.22073644399642944 -0.05478131026029587 0.8056074976921082 255 255 255
-0.21890097856521606 -0.054725244641304016 0.804783046245575 255 255 255
-0.21750086545944214 -0.054777998477220535 0.8055588006973267 255 255 255
-0.2163490206003189 -0.054894521832466125 0.8072724342346191 255 255 255
-0.21502366662025452 -0.0549684539437294 0.8083596229553223 255 255 255
-0.2134391814470291 -0.05497676134109497 0.808481752872467 255 255 255
-0.2116299569606781 -0.05492686107754707 0.8077479600906372 255 255 255
-0.20961906015872955 -0.05482344329357147 0.8062271475791931 255 255 255
-0.20754125714302063 -0.05470079928636551 0.8044235110282898 255 255 255
-0.2055969089269638 -0.054611679166555405 0.8031129240989685 255 255 255
-0.20363444089889526 -0.05451630800962448 0.8017104268074036 255 255 255
-0.20198588073253632 -0.05450412631034851 0.8015313148498535 255 255 255
-0.20073266327381134 -0.05459928512573242 0.8029306530952454 255 255 255
-0.1994294822216034 -0.054682280868291855 0.804151177406311 255 255 255
-0.19788874685764313 -0.05470095947384834 0.804425835609436 255 255 255
-0.19610191881656647 -0.05465135723352432 0.8036963939666748 255 255 255
-0.1942141205072403 -0.05457256734371185 0.802537739276886 255 255 255
-0.1922314614057541 -0.054465580731630325 0.8009644150733948 255 255 255
-0.19027197360992432 -0.054363422095775604 0.799462080001831 255 255 255
-0.18834732472896576 -0.05426957085728645 0.7980818748474121 255 255 255
-0.186481311917305 -0.05419114604592323 0.7969286441802979 255 255 255
-0.18474392592906952 -0.0541490837931633 0.7963100075721741 255 255 255
-0.18291619420051575 -0.054079569876194 0.7952877879142761 255 255 255
-0.18115828931331635 -0.054029665887355804 0.7945539355278015 255 255 255
-0.17954164743423462 -0.05402137711644173 0.7944320440292358 255 255 255
-0.17797480523586273 -0.054028067737817764 0.7945303916931152 255 255 255
-0.1762373000383377 -0.05398259684443474 0.7938617467880249 255 255 255
-0.1745253950357437 -0.05394421145319939 0.7932972311973572 255 255 255
-0.17287740111351013 -0.053925059735774994 0.7930155992507935 255 255 255
-0.17117351293563843 -0.05388795584440231 0.7924699187278748 255 255 255
-0.16933923959732056 -0.053808726370334625 0.7913048267364502 255 255 255
-0.16751691699028015 -0.05373184382915497 0.790174126625061 255 255 255
-0.16573423147201538 -0.05366632342338562 0.7892106771469116 255 255 255
-0.16394293308258057 -0.053596727550029755 0.7881872057914734 255 255 255
-0.16228529810905457 -0.05356990173459053 0.7877926826477051 255 255 255
-0.16059021651744843 -0.053530070930719376 0.7872069478034973 255 255 255
-0.1588897854089737 -0.05348764732480049 0.7865830659866333 255 255 255
-0.15726369619369507 -0.05346966162323952 0.7863185405731201 255 255 255
-0.15563130378723145 -0.05344913527369499 0.7860167026519775 255 255 255
-0.15406303107738495 -0.053450439125299454 0.7860358953475952 255 255 255
-0.1525924950838089 -0.05348603054881096 0.7865592837333679 255 255 255
-0.15122179687023163 -0.05355772376060486 0.787613570690155 255 255 255
-0.15010589361190796 -0.05372210964560509 0.7900310158729553 255 255 255
-0.14860190451145172 -0.05374962091445923 0.7904356122016907 255 255 255
-0.14697298407554626 -0.05373205617070198 0.7901772856712341 255 255 255
-0.14554822444915771 -0.05378956347703934 0.7910229563713074 255 255 255
-0.14416083693504333 -0.05386228859424591 0.792092502117157 255 255 255
-0.1427711844444275 -0.05393577739596367 0.7931731939315796 255 255 255
-0.14142462611198425 -0.05402738228440285 0.7945203185081482 255 255 255
-0.14008496701717377 -0.054123733192682266 0.7959372401237488 255 255 255
-0.13864320516586304 -0.054182399064302444 0.7968000173568726 255 255 255
-0.13712140917778015 -0.05421079322695732 0.7972175478935242 255 255 255
-0.13555122911930084 -0.054220493882894516 0.7973601818084717 255 255 255
-0.13402442634105682 -0.054247986525297165 0.7977644801139832 255 255 255
-0.13259229063987732 -0.05431491136550903 0.7987486720085144 255 255 255
-0.1311538964509964 -0.054380882531404495 0.7997188568115234 255 255 255
-0.12950211763381958 -0.054358914494514465 0.7993957996368408 255 255 255
-0.12764860689640045 -0.05425066128373146 0.7978038191795349 255 255 255
-0.12580351531505585 -0.05414328724145889 0.79622483253479 255 255 255
-0.12412389367818832 -0.05410528555512428 0.795665979385376 255 255 255
-0.1224844828248024 -0.05408405512571335 0.7953537702560425 255 255 255
-0.12091179937124252 -0.05409211665391922 0.7954723238945007 255 255 255
-0.11946029216051102 -0.05415533110499382 0.7964019179344177 255 255 255
-0.1181231215596199 -0.054272785782814026 0.7981292009353638 255 255 255
-0.1168743297457695 -0.05443461984395981 0.8005090951919556 255 255 255
-0.11544246971607208 -0.05451449751853943 0.801683783531189 255 255 255
-0.11374176293611526 -0.05446788668632507 0.800998330116272 255 255 255
-0.11218397319316864 -0.05448935925960541 0.801314115524292 255 255 255
-0.11051366478204727 -0.05445600673556328 0.8008236289024353 255 255 255
-0.10873986035585403 -0.05436993017792702 0.7995578050613403 255 255 255
-0.10696863383054733 -0.05428259074687958 0.7982733845710754 255 255 255
-0.10522677004337311 -0.054207731038331985 0.797172486782074 255 255 255
-0.10341678559780121 -0.054094936698675156 0.7955137491226196 255 255 255
-0.10159161686897278 -0.053970541805028915 0.7936844825744629 255 255 255
-0.09980884194374084 -0.053865090012550354 0.7921336889266968 255 255 255
-0.09804341942071915 -0.05376574397087097 0.7906727194786072 255 255 255
-0.0963161364197731 -0.053684405982494354 0.7894765734672546 255 255 255
-0.09463363140821457 -0.053625721484422684 0.7886135578155518 255 255 255
-0.09299201518297195 -0.053588613867759705 0.7880678772926331 255 255 255
-0.0913936197757721 -0.05357557162642479 0.7878760695457458 255 255 255
-0.08983445167541504 -0.053585462272167206 0.7880215048789978 255 255 255
-0.08830089122056961 -0.05361125245690346 0.7884007692337036 255 255 255
-0.08678314089775085 -0.053647760301828384 0.7889376282691956 255 255 255
-0.08528023958206177 -0.053694967180490494 0.7896318435668945 255 255 255
-0.08390811085700989 -0.05382784456014633 0.7915859222412109 255 255 255
-0.08259497582912445 -0.05400440841913223 0.7941824793815613 124 125 127
-0.0812024250626564 -0.054134950041770935 0.7961021661758423 0 0 0
-0.07967277616262436 -0.05417748913168907 0.7967277765274048 0 0 0
-0.07809773832559586 -0.054190270602703094 0.7969157099723816 0 0 0
-0.07660569250583649 -0.05426236242055893 0.7979759573936462 0 0 0
-0.0751933827996254 -0.05439520999789238 0.7999295592308044 0 0 0
-0.07375643402338028 -0.05451562628149986 0.8017003536224365 51 51 53
-0.0722634568810463 -0.054599057883024216 0.8029273152351379 141 143 146
-0.07076876610517502 -0.05468495562672615 0.8041905164718628 255 255 255
-0.06921149790287018 -0.054725367575883865 0.8047848343849182 255 255 255
-0.0675705075263977 -0.054699935019016266 0.8044108152389526 255 255 255
-0.06594861298799515 -0.05468909442424774 0.8042513728141785 255 255 255
-0.06433109939098358 -0.054681435227394104 0.804138720035553 255 255 255
-0.06268276274204254 -0.054646510630846024 0.8036251664161682 255 255 255
-0.06099654734134674 -0.05457586050033569 0.8025861382484436 255 255 255
-0.05931488797068596 -0.054505571722984314 0.8015525341033936 255 255 255
-0.05759185180068016 -0.05439230427145958 0.7998868227005005 255 255 255
-0.055850181728601456 -0.05425446480512619 0.7978597283363342 255 255 255
-0.054116953164339066 -0.054116953164339066 0.7958375811576843 255 255 255
-0.052384477108716965 -0.05397188290953636 0.7937041521072388 255 255 255
-0.05064602568745613 -0.05381140112876892 0.791344165802002 255 255 255
-0.04885738343000412 -0.05358551815152168 0.7880223393440247 255 255 255
-0.047073815017938614 -0.05335031822323799 0.7845635414123535 255 255 255
-0.04540152847766876 -0.053229376673698425 0.7827849388122559 255 255 255
-0.04374360665678978 -0.053117234259843826 0.7811357975006104 255 255 255
-0.042097464203834534 -0.05301162227988243 0.779582679271698 255 255 255
-0.0404687225818634 -0.052920639514923096 0.77824467420578 255 255 255
-0.03886619582772255 -0.05285802483558655 0.7773239016532898 255 255 255
-0.037232574075460434 -0.05274614691734314 0.7756786346435547 255 255 255
-0.03558314964175224 -0.05260118097066879 0.7735467553138733 255 255 255
-0.033941105008125305 -0.05245443433523178 0.7713887095451355 255 255 255
-0.032320089638233185 -0.05232776701450348 0.7695260047912598 255 255 255
-0.03069489262998104 -0.052181314677000046 0.7673723101615906 255 255 255
-0.029063545167446136 -0.05200844630599022 0.7648301124572754 255 255 255
-0.02744719386100769 -0.05184469744563103 0.7624220252037048 255 255 255
-0.025858093053102493 -0.05171618610620499 0.7605321407318115 255 255 255
-0.02425902523100376 -0.051550429314374924 0.7580945491790771 255 255 255
-0.0226481594145298 -0.05133582279086113 0.7549386024475098 255 255 255
-0.02104593627154827 -0.051111556589603424 0.7516405582427979 255 255 255
-0.01946684531867504 -0.050913289189338684 0.7487248182296753 255 255 255
-0.017890945076942444 -0.05069100856781006 0.7454560399055481 255 255 255
-0.01632069982588291 -0.0504457987844944 0.741849958896637 255 255 255
-0.01476799976080656 -0.05021119862794876 0.7383999824523926 255 255 255
-0.013237351551651955 -0.05000777542591095 0.7354084253311157 255 255 255
-0.011723717674612999 -0.04982580244541168 0.732732355594635 255 255 255
-0.010212551802396774 -0.04960382357239723 0.7294679880142212 255 255 255
-0.008713756687939167 -0.04937795549631119 0.726146399974823 255 255 255
-0.007233455777168274 -0.04918750002980232 0.7233455777168274 255 255 255
-0.00576933054253459 -0.049039311707019806 0.7211663126945496 255 255 255
-0.0043070497922599316 -0.04881323128938675 0.717841625213623 255 255 255
-0.002855815691873431 -0.0485488660633564 0.7139539122581482 84 85 87
-0.0014209772925823927 -0.04831322655081749 0.7104886174201965 0 0 0
0.0 -0.04813699796795845 0.7078970074653625 0 0 0
0.0014071391196921468 -0.04784272611141205 0.7035695314407349 0 0 0
0.002796212211251259 -0.04753560572862625 0.6990530490875244 0 0 0
0.004170154687017202 -0.04726175218820572 0.6950258016586304 0 0 0
0.005527419038116932 -0.04698306322097778 0.6909273862838745 0 0 0
0.006870914250612259 -0.04672222211956978 0.6870914697647095 0 0 0
0.008202050812542439 -0.04647829011082649 0.6835042834281921 84 85 87
0.009523764252662659 -0.04625828564167023 0.6802688837051392 226 227 228
0.010838143527507782 -0.04606211185455322 0.6773839592933655 255 255 255
0.01212860643863678 -0.04581918194890022 0.6738114953041077 255 255 255
0.013405857607722282 -0.04557991772890091 0.6702929139137268 255 255 255
0.014678767882287502 -0.045370735228061676 0.6672167181968689 255 255 255
0.015947312116622925 -0.045184049755334854 0.6644713282585144 255 255 255
0.017199955880641937 -0.044984497129917145 0.661536693572998 255 255 255
0.018446652218699455 -0.04479900747537613 0.6588089466094971 255 255 255
0.01968614012002945 -0.04462191462516785 0.6562046408653259 255 255 255
0.020912334322929382 -0.04443870857357979 0.6535104513168335 255 255 255
0.02212848700582981 -0.04425697401165962 0.6508378386497498 255 255 255
0.02332524210214615 -0.04405879229307175 0.6479234099388123 255 255 255
0.024510202929377556 -0.04386036470532417 0.6450053453445435 255 255 255
0.025693783536553383 -0.043679431080818176 0.64234459400177 255 255 255
0.026881854981184006 -0.04352300241589546 0.6400441527366638 255 255 255
0.0280429907143116 -0.043339166790246964 0.6373407244682312 255 255 255
0.029199030250310898 -0.043163783848285675 0.6347615122795105 255 255 255
0.030363399535417557 -0.04301481693983078 0.6325708031654358 255 255 255
0.03152250126004219 -0.04287060722708702 0.6304500699043274 255 255 255
0.03264812380075455 -0.04269370436668396 0.6278485655784607 255 255 255
0.03376321867108345 -0.04251664876937866 0.6252447962760925 255 255 255
0.034876637160778046 -0.042350199073553085 0.6227970719337463 255 255 255
0.03597396984696388 -0.04217638075351715 0.6202408671379089 255 255 255
0.03703095391392708 -0.041968412697315216 0.6171825528144836 255 255 255
0.038061175495386124 -0.04174451529979706 0.6138899326324463 255 255 255
0.03908154368400574 -0.04152413830161095 0.6106491088867188 255 255 255
0.04010056331753731 -0.04131573066115379 0.6075842976570129 255 255 255
0.04106662794947624 -0.04106662794947624 0.6039209961891174 255 255 255
0.04202352836728096 -0.04082285612821579 0.6003361344337463 255 255 255
0.043007172644138336 -0.04061788320541382 0.5973218083381653 255 255 255
0.044018153101205826 -0.0404491163790226 0.5948399305343628 255 255 255
0.04503140598535538 -0.04029126092791557 0.5925185084342957 255 255 255
0.04608090594410896 -0.04017309844493866 0.5907808542251587 255 255 255
0.0471363365650177 -0.040065884590148926 0.5892041921615601 255 255 255
0.04815419018268585 -0.0399327427148819 0.5872462391853333 255 255 255
0.04915573447942734 -0.0397927351295948 0.5851873159408569 255 255 255
0.05010592192411423 -0.039618637412786484 0.58262699842453 255 255 255
0.05101732164621353 -0.03942247852683067 0.5797423124313354 255 255 255
0.05192699655890465 -0.0392337292432785 0.5769666433334351 255 255 255
0.05284316465258598 -0.03905799239873886 0.5743822455406189 255 255 255
0.053749628365039825 -0.03888271376490593 0.5718045830726624 255 255 255
0.05467936024069786 -0.03873121365904808 0.5695766806602478 255 255 255
0.05563231185078621 -0.038602013140916824 0.5676766633987427 255 255 255
0.056567881256341934 -0.038466159254312515 0.5656788349151611 255 255 255
0.05749475210905075 -0.0383298322558403 0.5636740326881409 255 255 255
0.058403801172971725 -0.03818709775805473 0.5615749955177307 255 255 255
0.059286121279001236 -0.03803260624408722 0.5593030452728271 255 255 255
0.06014971435070038 -0.03787204250693321 0.55694180727005 255 255 255
0.06099676713347435 -0.037707094103097916 0.554516077041626 255 255 255
0.061806291341781616 -0.0375252440571785 0.5518418550491333 255 255 255
0.06260065734386444 -0.03734074532985687 0.5491285920143127 255 255 255
0.06343398988246918 -0.037185441702604294 0.5468447208404541 255 255 255
0.06425289809703827 -0.03702709078788757 0.5445160865783691 255 255 255
0.06503723561763763 -0.03685443475842476 0.5419769883155823 255 255 255
0.06584121286869049 -0.03669837862253189 0.5396820306777954 255 255 255
0.06672830134630203 -0.03659294173121452 0.5381314754486084 255 255 255
0.06750056147575378 -0.03642887622117996 0.5357187390327454 255 255 255
0.06822015345096588 -0.036241959780454636 0.5329699516296387 255 255 255
0.06893232464790344 -0.03605690598487854 0.5302486419677734 255 255 255
0.06965024769306183 -0.0358804315328598 0.5276533961296082 255 255 255
0.07026742398738861 -0.0356580950319767 0.5243837833404541 255 255 255
0.07090451568365097 -0.035452257841825485 0.5213567614555359 255 255 255
0.07160009443759918 -0.03528120368719101 0.5188412666320801 95 96 98
0.07232100516557693 -0.035127345472574234 0.5165786147117615 202 203 205
0.07306205481290817 -0.03498746454715729 0.5145215392112732 255 255 255
0.07379069924354553 -0.034845612943172455 0.5124354362487793 255 255 255
0.07446303963661194 -0.034681420773267746 0.5100208520889282 255 255 255
0.07505891472101212 -0.034486524760723114 0.5071548223495483 255 255 255
0.07557622343301773 -0.034261222928762436 0.5038415193557739 255 255 255
0.07603585720062256 -0.03401603922247887 0.500235915184021 255 255 255
0.07650383561849594 -0.03378091752529144 0.4967781901359558 255 255 255
0.07702735811471939 -0.033576030284166336 0.4937651455402374 255 255 255
0.0776018500328064 -0.03339826688170433 0.49115097522735596 255 255 255
0.07822247594594955 -0.033244550228118896 0.4888904392719269 255 255 255
0.07876119762659073 -0.03306025639176369 0.48618024587631226 255 255 255
0.07914742827415466 -0.03281722590327263 0.48260626196861267 255 255 255
0.07947707176208496 -0.03255687281489372 0.47877755761146545 255 255 255
0.07965842634439468 -0.03224269300699234 0.47415730357170105 255 255 255
0.0797131285071373 -0.03188525140285492 0.46890076994895935 255 255 255
0.07979454100131989 -0.03154667839407921 0.4639217257499695 255 255 255
0.08004475384950638 -0.03128185495734215 0.4600273072719574 148 150 153
0.08016981184482574 -0.030974701046943665 0.45551031827926636 0 0 0
0.08032265305519104 -0.03068505972623825 0.4512508809566498 0 0 0
0.0805545449256897 -0.0304317157715559 0.4475252330303192 124 125 127
0.08080901950597763 -0.030192380771040916 0.4440056085586548 255 255 255
0.08094120770692825 -0.029913054779171944 0.4398978650569916 255 255 255
0.08125460892915726 -0.029705986380577087 0.43685272336006165 255 255 255
0.08171164989471436 -0.029555276036262512 0.4346364140510559 255 255 255
0.08211728930473328 -0.02938934415578842 0.4321962296962738 255 255 255
0.08275449275970459 -0.029308883473277092 0.43101298809051514 255 255 255
0.08344357460737228 -0.02924826182425022 0.430121511220932 255 255 255
0.08401016145944595 -0.029146380722522736 0.4286232590675354 255 255 255
0.08444785326719284 -0.029002292081713676 0.42650431394577026 84 85 87
0.08504583686590195 -0.028915584087371826 0.42522919178009033 0 0 0
0.0855354517698288 -0.02879411354660988 0.4234428405761719 0 0 0
0.0859420970082283 -0.028647365048527718 0.4212847948074341 0 0 0
0.0862746313214302 -0.02847900427877903 0.41880887746810913 0 0 0
0.08637283742427826 -0.028237275779247284 0.41525405645370483 0 0 0
0.08574532717466354 -0.027765152975916862 0.4083110988140106 0 0 0
0.08474772423505783 -0.027183232828974724 0.3997534215450287 22 22 23
0.08417273312807083 -0.02674647606909275 0.39333051443099976 255 255 255
0.08452098071575165 -0.026608455926179886 0.39130082726478577 255 255 255
0.08470028638839722 -0.02642027474939823 0.38853344321250916 255 255 255
0.08397416770458221 -0.025955650955438614 0.3817007541656494 255 255 255
0.08295723795890808 -0.025410324335098267 0.3736812472343445 255 255 255
0.08316048979759216 -0.025245146825909615 0.371252179145813 255 255 255
0.08335214108228683 -0.025079406797885895 0.3688147962093353 255 255 255
0.08358186483383179 -0.024927925318479538 0.3665871322154999 255 255 255
0.0838288739323616 -0.024784186854958534 0.3644733428955078 255 255 255
0.08408074826002121 -0.024644358083605766 0.3624170124530792 255 255 255
0.08421748876571655 -0.024473458528518677 0.35990381240844727 255 255 255
0.08416818082332611 -0.024251848459243774 0.3566448390483856 255 255 255
0.08413812518119812 -0.024039462208747864 0.35352152585983276 255 255 255
0.08435177057981491 -0.023899666965007782 0.35146570205688477 255 255 255
0.08449386805295944 -0.023742077872157097 0.3491482138633728 255 255 255
0.0845985859632492 -0.023576654493808746 0.34671550989151 255 255 255
0.08465409278869629 -0.02340031787753105 0.3441223204135895 255 255 255
0.08466687053442001 -0.02321510948240757 0.3413986563682556 255 255 255
0.08458656817674637 -0.023007547482848167 0.3383462727069855 255 255 255
0.08438767492771149 -0.022771276533603668 0.33487170934677124 255 255 255
0.08436093479394913 -0.022584816440939903 0.33212965726852417 255 255 255
0.08461911976337433 -0.022476954385638237 0.3305434286594391 255 255 255
0.08480135351419449 -0.022350745275616646 0.3286874294281006 255 255 255
0.08475973457098007 -0.022167930379509926 0.325998991727829 255 255 255
0.08464279770851135 -0.021968360990285873 0.3230641186237335 255 255 255
0.08456045389175415 -0.021780723705887794 0.3203047513961792 255 255 255
0.08427386730909348 -0.02154369466006756 0.31681904196739197 255 255 255
0.08389472961425781 -0.021286724135279655 0.3130400478839874 255 255 255
0.0835501104593277 -0.021042250096797943 0.3094448447227478 255 255 255
0.08328776806592941 -0.020821942016482353 0.30620503425598145 255 255 255
0.08304765820503235 -0.020610366016626358 0.30309364199638367 255 255 255
0.08269978314638138 -0.020375309512019157 0.2996369004249573 255 255 255
0.08237946778535843 -0.02015037275850773 0.2963290214538574 255 255 255
0.08214355260133743 -0.01994914747774601 0.2933698296546936 255 255 255
0.08192769438028336 -0.019755613058805466 0.2905237376689911 255 255 255
0.08164450526237488 -0.019548684358596802 0.2874806523323059 255 255 255
0.08165179193019867 -0.019413713365793228 0.285495787858963 255 255 255
0.08188328891992569 -0.019333552569150925 0.2843169569969177 255 255 255
0.08197058737277985 -0.019220689311623573 0.2826572060585022 255 255 255
0.08196712285280228 -0.01908823475241661 0.28070932626724243 255 255 255
0.08176896721124649 -0.018912550061941147 0.27812573313713074 255 255 255
0.08148866146802902 -0.018720369786024094 0.2752995491027832 255 255 255
0.08131223917007446 -0.01855447143316269 0.2728598713874817 255 255 255
0.08107014745473862 -0.018375897780060768 0.27023380994796753 255 255 255
0.0806640014052391 -0.01816275529563427 0.2670993506908417 255 255 255
0.08039689064025879 -0.017983514815568924 0.2644634544849396 255 255 255
0.08041174709796906 -0.01786927878856659 0.2627834975719452 255 255 255
0.0798519179224968 -0.01762964576482773 0.25925949215888977 255 255 255
0.0792938843369484 -0.01739349775016308 0.2557867169380188 255 255 255
0.07892757654190063 -0.017202163115143776 0.2529729902744293 255 255 255
0.07861389219760895 -0.01702466607093811 0.25036272406578064 255 255 255
0.07797035574913025 -0.016778431832790375 0.2467416226863861 255 255 255
0.0774586871266365 -0.01656349189579487 0.24358077347278595 255 255 255
0.07692360877990723 -0.016346268355846405 0.24038627743721008 255 255 255
0.07624830305576324 -0.016102127730846405 0.23679597675800323 255 255 255
0.07569778710603714 -0.015887189656496048 0.23363512754440308 255 255 255
0.07523832470178604 -0.01569388434290886 0.23079240322113037 255 255 255
0.07488593459129333 -0.015525133349001408 0.22831077873706818 255 255 255
0.07461921125650406 -0.015376079827547073 0.22611881792545319 255 255 255
0.07446875423192978 -0.01525263674557209 0.2243034839630127 255 255 255
0.07441980391740799 -0.01515133772045374 0.22281378507614136 255 255 255
0.07437089830636978 -0.015051252208650112 0.22134195268154144 255 255 255
0.07424426823854446 -0.014936717227101326 0.21965759992599487 255 255 255
0.07409514486789703 -0.014819029718637466 0.21792690455913544 255 255 255
0.07405879348516464 -0.014725139364600182 0.2165461778640747 255 255 255
0.07381246984004974 -0.014590837061405182 0.21457113325595856 255 255 255
0.07333388924598694 -0.014412441290915012 0.21194766461849213 255 255 255
0.07288932055234909 -0.014242740347981453 0.2094520628452301 255 255 255
0.07171350717544556 -0.013932909816503525 0.2048957347869873 255 255 255
0.07022498548030853 -0.01356618944555521 0.19950279593467712 255 255 255
0.06905292719602585 -0.013264404609799385 0.19506476819515228 255 255 255
0.06841786950826645 -0.01306858193129301 0.19218502938747406 255 255 255
0.06752274930477142 -0.012825551442801952 0.18861104547977448 255 255 255
0.0664949044585228 -0.012560147792100906 0.18470805883407593 255 255 255
0.06545134633779526 -0.012294727377593517 0.18080481886863708 255 255 255
0.06447197496891022 -0.012044216506183147 0.17712081968784332 255 255 255
0.06336400657892227 -0.011772547848522663 0.17312569916248322 255 255 255
0.06216774880886078 -0.011487518437206745 0.16893409192562103 255 255 255
0.061331309378147125 -0.011271700263023376 0.16576029360294342 255 255 255
0.06086224690079689 -0.011125356890261173 0.16360819339752197 255 255 255
0.059966158121824265 -0.010902938432991505 0.16033732891082764 255 255 255
0.05887284129858017 -0.010647215880453587 0.1565767079591751 255 255 255
0.05776536464691162 -0.010391653515398502 0.15281842648983002 255 255 255
0.0568615160882473 -0.010175218805670738 0.14963556826114655 255 255 255
0.05625690892338753 -0.01001431979238987 0.14726939797401428 255 255 255
0.05609381943941116 -0.00993327982723713 0.14607764780521393 255 255 255
0.0558440200984478 -0.009837807156145573 0.14467363059520721 134 135 138
0.055249739438295364 -0.009682944044470787 0.1423962414264679 226 227 228
0.054750535637140274 -0.009546247310936451 0.14038598537445068 255 255 255
0.054301634430885315 -0.009419671259820461 0.13852457702159882 255 255 255
0.05358991026878357 -0.00924901943653822 0.13601499795913696 255 255 255
0.052463967353105545 -0.009008963592350483 0.13248476386070251 255 255 255
0.051144640892744064 -0.008738280273973942 0.12850412726402283 255 255 255
0.04926300793886185 -0.008374711498618126 0.12315751612186432 255 255 255
0.047432202845811844 -0.008023357018828392 0.11799055337905884 255 255 255
0.04601012542843819 -0.00774427829310298 0.11388644576072693 202 203 205
0.0448346771299839 -0.00750925624743104 0.11043024063110352 226 227 228
0.04384775832295418 -0.00730796018615365 0.10746999830007553 255 255 255
0.04249940812587738 -0.007048682775348425 0.10365709662437439 255 255 255
0.04198195040225983 -0.006929059512913227 0.10189793258905411 255 255 255
0.043082285672426224 -0.00707631791010499 0.1040634959936142 255 255 255
0.04326920211315155 -0.007072850130498409 0.10401250422000885 255 255 255
0.04257472604513168 -0.0069260322488844395 0.10185341536998749 202 203 205
0.04191499203443527 -0.006786237470805645 0.09979760646820068 29 29 30
0.04176240786910057 -0.006729487795382738 0.09896305948495865 0 0 0
0.03964530676603317 -0.006358209531754255 0.09350308030843735 0 0 0
0.03839370980858803 -0.006128573324531317 0.09012608230113983 0 0 0
0.03804150968790054 -0.006043978501111269 0.08888203650712967 148 150 153
0.03744436055421829 -0.005921433679759502 0.08707990497350693 255 255 255
0.036044031381607056 -0.0056735980324447155 0.08343525975942612 255 255 255
0.03399978205561638 -0.005327154882252216 0.07834051549434662 255 255 255
0.03205862641334534 -0.004999969620257616 0.0735289603471756 255 255 255
0.030865108594298363 -0.004791843239217997 0.07046828418970108 255 255 255
0.030261624604463577 -0.004676796495914459 0.06877642124891281 255 255 255
0.030205588787794113 -0.004647013731300831 0.06833843886852264 255 255 255
0.03044777549803257 -0.004663172643631697 0.06857606768608093 255 255 255
0.03036453388631344 -0.004629570059478283 0.06808191537857056 255 255 255
0.029593845829367638 -0.004491922911256552 0.06605768948793411 255 255 255
0.029231837019324303 -0.004417255520820618 0.06495963782072067 255 255 255
0.02920813299715519 -0.004394144285470247 0.0646197646856308 255 255 255
0.02959403581917286 -0.00443258648738265 0.06518509984016418 255 255 255
0.03046874701976776 -0.004543584771454334 0.06681742519140244 255 255 255
0.03100297600030899 -0.0046030618250370026 0.06769208610057831 255 255 255
0.03204497694969177 -0.004737083334475756 0.06966298818588257 183 174 166
0.0332578606903553 -0.004895096179097891 0.07198671251535416 86 76 63
0.03379806876182556 -0.004953165538609028 0.07284066826105118 86 76 63
0.034398872405290604 -0.005019578151404858 0.07381732016801834 86 76 63
0.035078808665275574 -0.005096920765936375 0.07495471835136414 86 76 63
0.035726677626371384 -0.005168966017663479 0.0760142058134079 255 255 255
0.03627248480916023 -0.005225697066634893 0.07684848457574844 255 255 255
0.0373624749481678 -0.005360017996281385 0.07882378995418549 255 255 255
0.03768584877252579 -0.005383692216128111 0.07917194813489914 255 255 255
0.03792759031057358 -0.0053955563344061375 0.0793464183807373 255 255 255
0.03882245719432831 -0.005499848164618015 0.08088012039661407 255 255 255
0.03898097574710846 -0.005499390419572592 0.08087339252233505 255 255 255
0.03867991641163826 -0.00543436873704195 0.07991718500852585 255 255 255
0.03841843828558922 -0.005375419743359089 0.07905028760433197 255 255 255
0.03844365477561951 -0.005356902722269297 0.078777976334095 255 255 255
0.03821346536278725 -0.005303093232214451 0.07798666507005692 255 255 255
0.0377453938126564 -0.005216843448579311 0.0767182856798172 255 255 255
0.03730422258377075 -0.005134994629770517 0.07551462203264236 255 255 255
0.036875948309898376 -0.005055573768913746 0.07434667646884918 255 255 255
0.03594774380326271 -0.004908526781946421 0.07218421995639801 255 255 255
0.036138053983449936 -0.004914775490760803 0.07227610796689987 255 255 255
0.033434364944696426 -0.004528957884758711 0.06660231947898865 255 255 255
0.029255934059619904 -0.003947229124605656 0.05804748833179474 255 255 255
-0.4531988799571991 -0.059112899005413055 0.8956499695777893 255 255 255
-0.45593565702438354 -0.059705860912799835 0.9046342372894287 255 255 255
-0.4556768536567688 -0.05990970507264137 0.9077228307723999 255 255 255
-0.4513356685638428 -0.059576310217380524 0.9026713371276855 255 255 255
-0.4488479793071747 -0.05948587879538536 0.9013012051582336 255 255 255
-0.44735121726989746 -0.05952657759189606 0.9019178152084351 255 255 255
-0.44614940881729126 -0.05960701033473015 0.9031364917755127 255 255 255
-0.4450814127922058 -0.05970604345202446 0.9046370387077332 255 255 255
-0.44430917501449585 -0.05984572693705559 0.906753420829773 255 255 255
-0.44319865107536316 -0.059940800070762634 0.9081939458847046 255 255 255
-0.4417404234409332 -0.05998944118618965 0.9089308977127075 255 255 255
-0.439832478761673 -0.05997715890407562 0.9087448120117188 255 255 255
-0.43773576617240906 -0.05993892252445221 0.9081655144691467 255 255 255
-0.43646863102912903 -0.06001443415880203 0.9093096256256104 255 255 255
-0.43468624353408813 -0.060019440948963165 0.9093854427337646 255 255 255
-0.4320591688156128 -0.05990736931562424 0.9076873660087585 255 255 255
-0.42913392186164856 -0.059752821922302246 0.9053457975387573 255 255 255
-0.4263780415058136 -0.05962065979838371 0.9033433198928833 255 255 255
-0.42406585812568665 -0.05954967066645622 0.9022677540779114 255 255 255
-0.4223615229129791 -0.05956380069255829 0.9024818539619446 255 255 255
-0.42080309987068176 -0.05959872528910637 0.9030109643936157 255 255 255
-0.4186968207359314 -0.0595560148358345 0.9023638367652893 84 85 87
-0.4162130355834961 -0.059459008276462555 0.900894045829773 0 0 0
-0.41465574502944946 -0.059494081884622574 0.9014254808425903 0 0 0
-0.4136173129081726 -0.05960423871874809 0.9030945301055908 0 0 0
-0.4108891189098358 -0.05947079882025719 0.9010726809501648 51 51 53
-0.4077027142047882 -0.059269558638334274 0.8980236053466797 141 143 146
-0.4050183892250061 -0.059139858931303024 0.8960584402084351 255 255 255
-0.4028528332710266 -0.05908508598804474 0.8952285647392273 255 255 255
-0.40022462606430054 -0.058961667120456696 0.893358588218689 255 255 255
-0.39815446734428406 -0.05891972407698631 0.8927230834960938 255 255 255
-0.3959212899208069 -0.058853164315223694 0.8917146325111389 255 255 255
-0.39308443665504456 -0.05869586765766144 0.8893313407897949 255 255 255
-0.38991832733154297 -0.058487746864557266 0.8861780166625977 255 255 255
-0.38697558641433716 -0.05831139162182808 0.8835058808326721 255 255 255
-0.38439634442329407 -0.058188434690237045 0.8816429376602173 255 255 255
-0.3818288743495941 -0.058066144585609436 0.8797900676727295 255 255 255
-0.3790026009082794 -0.05790317431092262 0.8773208260536194 255 255 255
-0.3775266706943512 -0.05794595554471016 0.8779690265655518 255 255 255
-0.3757697343826294 -0.057945799082517624 0.8779667019844055 255 255 255
-0.3735797703266144 -0.05787855386734009 0.876947820186615 255 255 255
-0.37158432602882385 -0.05784095823764801 0.8763781189918518 255 255 255
-0.3700074553489685 -0.057868462055921555 0.8767948746681213 255 255 255
-0.3679679036140442 -0.05782352760434151 0.8761140704154968 255 255 255
-0.3662424087524414 -0.05782775208353996 0.8761780261993408 255 255 255
-0.365278422832489 -0.05795282498002052 0.8780730962753296 255 255 255
-0.36388373374938965 -0.05801044777035713 0.8789461851119995 255 255 255
-0.3621252775192261 -0.05801036208868027 0.8789448738098145 255 255 255
-0.3608200252056122 -0.058083225041627884 0.8800488710403442 74 74 76
-0.3600582778453827 -0.058244723826646805 0.8824958205223083 0 0 0
-0.3586495518684387 -0.058302637189626694 0.8833733201026917 0 0 0
-0.35696637630462646 -0.05831628665328026 0.8835801482200623 0 0 0
-0.3556380271911621 -0.05838833749294281 0.8846717476844788 0 0 0
-0.3542822301387787 -0.05845656991004944 0.8857055902481079 0 0 0
-0.3517291843891144 -0.058326948434114456 0.8837416768074036 0 0 0
-0.34725791215896606 -0.05787631496787071 0.8769139051437378 169 171 174
-0.34232431650161743 -0.05734366551041603 0.8688434362411499 255 255 255
-0.3386272192001343 -0.057013772428035736 0.8638449907302856 255 255 255
-0.33630311489105225 -0.05691283568739891 0.8623156547546387 255 255 255
-0.33411577343940735 -0.05683412775397301 0.8611231446266174 255 255 255
-0.33231300115585327 -0.056820355355739594 0.8609144687652588 255 255 255
-0.3306916356086731 -0.05683762580156326 0.8611761927604675 255 255 255
-0.3289249837398529 -0.05682997405529022 0.8610602021217346 255 255 255
-0.3270489573478699 -0.05680323764681816 0.8606551289558411 255 255 255
-0.32522323727607727 -0.05678500607609749 0.8603789210319519 255 255 255
-0.323175847530365 -0.05672767758369446 0.8595102429389954 255 255 255
-0.32067885994911194 -0.05659038573503494 0.857430100440979 255 255 255
-0.31778210401535034 -0.05638069659471512 0.8542529344558716 255 255 255
-0.31518447399139404 -0.0562220998108387 0.8518499732017517 255 255 255
-0.3125990927219391 -0.05606396868824959 0.8494540452957153 255 255 255
-0.30982503294944763 -0.055870089679956436 0.8465165495872498 255 255 255
-0.3082401156425476 -0.05588969215750694 0.8468134999275208 255 255 255
-0.3072141110897064 -0.05601141229271889 0.8486577868461609 255 255 255
-0.3070823550224304 -0.056298431009054184 0.8530065417289734 255 255 255
-0.30732256174087524 -0.05665723234415054 0.8584429621696472 255 255 255
-0.3064700961112976 -0.05681748688220978 0.8608710169792175 74 74 76
-0.30451300740242004 -0.05677361413836479 0.8602062463760376 0 0 0
-0.3019297420978546 -0.05661182850599289 0.8577549457550049 0 0 0
-0.2994438707828522 -0.05646656081080437 0.855553925037384 0 0 0
-0.29709625244140625 -0.05634583905339241 0.8537248373031616 0 0 0
-0.29348763823509216 -0.05598319321870804 0.8482301831245422 0 0 0
-0.29043397307395935 -0.05572279542684555 0.8442847728729248 0 0 0
-0.28867730498313904 -0.055709656327962875 0.844085693359375 109 110 112
-0.2868621349334717 -0.055685002356767654 0.8437121510505676 255 255 255
-0.2845328748226166 -0.0555596724152565 0.8418132066726685 255 255 255
-0.28235211968421936 -0.05546202138066292 0.8403336405754089 124 125 127
-0.2803974449634552 -0.05540787801146507 0.8395133018493652 0 0 0
-0.2781383991241455 -0.05529257655143738 0.8377662897109985 0 0 0
-0.2761874198913574 -0.055237479507923126 0.8369315266609192 0 0 0
-0.27444085478782654 -0.055222854018211365 0.8367099165916443 0 0 0
-0.27242511510849 -0.05515354499220848 0.8356598019599915 0 0 0
-0.26989689469337463 -0.05497899651527405 0.8330150842666626 0 0 0
-0.2679015100002289 -0.05491149425506592 0.8319923281669617 25 25 25
-0.2650860846042633 -0.05467400699853897 0.8283940553665161 226 227 228
-0.26211366057395935 -0.05440094694495201 0.8242567777633667 255 255 255
-0.2601624131202698 -0.05433771759271622 0.8232987523078918 255 255 255
-0.2586408853530884 -0.05436401441693306 0.8236971497535706 226 227 228
-0.2572058439254761 -0.05440892279148102 0.8243776559829712 0 0 0
-0.25577229261398315 -0.0544547475874424 0.8250719308853149 0 0 0
-0.2543821334838867 -0.054510459303855896 0.825916051864624 0 0 0
-0.2530422508716583 -0.05457773432135582 0.8269354104995728 0 0 0
-0.2516006827354431 -0.05462382733821869 0.827633798122406 105 106 108
-0.2500065267086029 -0.05463718995451927 0.8278362154960632 202 203 205
-0.24832414090633392 -0.0546313151717186 0.8277471661567688 255 255 255
-0.24655933678150177 -0.05460710451006889 0.827380359172821 255 255 255
-0.24503883719444275 -0.054637037217617035 0.827833890914917 255 255 255
-0.24395667016506195 -0.05476578325033188 0.8297845721244812 255 255 255
-0.24293065071105957 -0.054908983409404755 0.831954300403595 158 160 163
-0.24128124117851257 -0.05491228029131889 0.8320042490959167 0 0 0
-0.23951539397239685 -0.05488894134759903 0.8316506743431091 0 0 0
-0.23763754963874817 -0.05483943223953247 0.8309004902839661 0 0 0
-0.23549775779247284 -0.05472835153341293 0.8292174339294434 0 0 0
-0.23293882608413696 -0.05451760068535805 0.8260242342948914 0 0 0
-0.22988374531269073 -0.054186880588531494 0.8210133910179138 0 0 0
-0.22612957656383514 -0.05368544161319733 0.8134157657623291 169 171 174
-0.22270479798316956 -0.05325549840927124 0.8069014549255371 255 255 255
-0.22067730128765106 -0.053155846893787384 0.8053916096687317 255 255 255
-0.21870742738246918 -0.05306871235370636 0.8040714263916016 255 255 255
-0.21727240085601807 -0.05311103165149689 0.8047125935554504 255 255 255
-0.2161719650030136 -0.053236380219459534 0.8066118359565735 255 255 255
-0.21489186584949493 -0.05331902951002121 0.8078641295433044 255 255 255
-0.21334721148014069 -0.05333680287003517 0.8081333637237549 255 255 255
-0.21162548661231995 -0.05331023782491684 0.8077308535575867 255 255 255
-0.2096998244524002 -0.05323149636387825 0.8065378069877625 255 255 255
-0.20764490962028503 -0.05311846360564232 0.8048252463340759 255 255 255
-0.2057100236415863 -0.05303461477160454 0.8035547733306885 255 255 255
-0.20381172001361847 -0.05295895040035248 0.8024083375930786 255 255 255
-0.2020212560892105 -0.05291032791137695 0.8016716241836548 255 255 255
-0.20042774081230164 -0.05291292071342468 0.8017109632492065 255 255 255
-0.19929589331150055 -0.053038422018289566 0.803612470626831 255 255 255
-0.19789625704288483 -0.05309411883354187 0.804456353187561 255 255 255
-0.19612112641334534 -0.053049154579639435 0.8037750720977783 255 255 255
-0.19416841864585876 -0.0529550202190876 0.802348792552948 255 255 255
-0.19207055866718292 -0.05281940475106239 0.8002939820289612 255 255 255
-0.19023118913173676 -0.05275318771600723 0.7992907166481018 255 255 255
-0.18850566446781158 -0.05271768197417259 0.7987527847290039 255 255 255
-0.18671493232250214 -0.05266318842768669 0.7979270815849304 255 255 255
-0.1849393993616104 -0.052612073719501495 0.797152578830719 255 255 255
-0.1831112951040268 -0.052544981241226196 0.7961360812187195 255 255 255
-0.1813098043203354 -0.052484411746263504 0.7952184081077576 255 255 255
-0.179585799574852 -0.052445411682128906 0.7946274280548096 255 255 255
-0.17790938913822174 -0.05241973325610161 0.7942383885383606 255 255 255
-0.17620685696601868 -0.05238582193851471 0.7937245965003967 255 255 255
-0.17457345128059387 -0.0523720346391201 0.793515682220459 255 255 255
-0.17293821275234222 -0.052357446402311325 0.7932946085929871 255 255 255
-0.17117217183113098 -0.05230260640382767 0.7924637198448181 255 255 255
-0.16929207742214203 -0.05221157893538475 0.7910845279693604 255 255 255
-0.16743431985378265 -0.052125781774520874 0.7897845506668091 255 255 255
-0.1656275987625122 -0.05205438658595085 0.7887028455734253 255 255 255
-0.16382147371768951 -0.051981810480356216 0.7876031994819641 255 255 255
-0.16215695440769196 -0.05195319652557373 0.7871696352958679 255 255 255
-0.16047610342502594 -0.05191873759031296 0.7866475582122803 255 255 255
-0.15880262851715088 -0.05188600718975067 0.7861515879631042 255 255 255
-0.15720349550247192 -0.051877155900001526 0.7860174775123596 255 255 255
-0.1556348353624344 -0.05187828093767166 0.7860345840454102 255 255 255
-0.15409758687019348 -0.05189000442624092 0.786212146282196 255 255 255
-0.15267406404018402 -0.05194065719842911 0.7869796752929688 255 255 255
-0.15138590335845947 -0.052038904279470444 0.7884683012962341 255 255 255
-0.15028968453407288 -0.052205890417099 0.7909983396530151 255 255 255
-0.14863473176956177 -0.05218028277158737 0.7906103134155273 255 255 255
-0.14685159921646118 -0.05210862681269646 0.7895246744155884 255 255 255
-0.1453862339258194 -0.05214941129088402 0.7901425957679749 255 255 255
-0.14391665160655975 -0.052189555019140244 0.7907508611679077 255 255 255
-0.14247596263885498 -0.05224118381738663 0.7915331125259399 255 255 255
-0.1411147117614746 -0.05232343450188637 0.792779266834259 255 255 255
-0.1397797018289566 -0.052417393773794174 0.7942029237747192 255 255 255
-0.1383497565984726 -0.05247749388217926 0.7951135635375977 255 255 255
-0.1368531584739685 -0.052513424307107925 0.7956579327583313 255 255 255
-0.13534203171730042 -0.05254455283284187 0.796129584312439 255 255 255
-0.1338120847940445 -0.052569035440683365 0.7965005040168762 255 255 255
-0.13220524787902832 -0.05256353318691254 0.7964171767234802 255 255 255
-0.13062399625778198 -0.05256819352507591 0.7964878082275391 255 255 255
-0.12899474799633026 -0.05255342274904251 0.7962639331817627 255 255 255
-0.12731488049030304 -0.05251738801598549 0.7957180142402649 255 255 255
-0.12564168870449066 -0.05248323827981949 0.7952005863189697 255 255 255
-0.12399221211671829 -0.05245824530720711 0.7948218584060669 255 255 255
-0.12235704064369202 -0.052438732236623764 0.794526219367981 255 255 255
-0.12081528455018997 -0.052459269762039185 0.7948374152183533 255 255 255
-0.11940199881792068 -0.05253687873482704 0.796013355255127 255 255 255
-0.11807814985513687 -0.052656471729278564 0.7978253364562988 255 255 255
-0.11675308644771576 -0.05277879163622856 0.7996786832809448 255 255 255
-0.11536076664924622 -0.05287368223071098 0.801116406917572 255 255 255
-0.113900326192379 -0.05293959006667137 0.8021150231361389 255 255 255
-0.11239500343799591 -0.05298621580004692 0.8028214573860168 255 255 255
-0.11075574159622192 -0.05297013744711876 0.8025778532028198 255 255 255
-0.10902748256921768 -0.05291039124131203 0.801672637462616 255 255 255
-0.10731223225593567 -0.05285528302192688 0.8008375763893127 255 255 255
-0.10561776161193848 -0.05280888080596924 0.800134539604187 255 255 255
-0.10384910553693771 -0.052723392844200134 0.798839271068573 255 255 255
-0.10205673426389694 -0.052622999995946884 0.7973182201385498 255 255 255
-0.10029152035713196 -0.052533652633428574 0.7959644198417664 255 255 255
-0.09851492941379547 -0.05243536829948425 0.794475257396698 255 255 255
-0.09676321595907211 -0.05234731361269951 0.7931411266326904 158 160 163
-0.09504833817481995 -0.05227658897638321 0.7920694947242737 158 160 163
-0.09337146580219269 -0.052224718034267426 0.7912836074829102 255 255 255
-0.09173361957073212 -0.05219326913356781 0.7908070683479309 255 255 255
-0.0901319682598114 -0.0521816648542881 0.7906312942504883 255 255 255
-0.0885721892118454 -0.052194323390722275 0.7908231019973755 255 255 255
-0.0870397686958313 -0.05222386494278908 0.7912706732749939 255 255 255
-0.08551131933927536 -0.05225691944360733 0.7917715311050415 255 255 255
-0.08418487757444382 -0.05241699889302254 0.7941969633102417 255 255 255
-0.08287137746810913 -0.05259145051240921 0.7968401312828064 95 96 98
-0.08143793791532516 -0.052695132791996 0.7984111309051514 0 0 0
-0.07991242408752441 -0.05274219810962677 0.7991242408752441 0 0 0
-0.07834666967391968 -0.052764084190130234 0.7994558215141296 0 0 0
-0.07685807347297668 -0.05283992365002632 0.8006048798561096 0 0 0
-0.07543615996837616 -0.05296581611037254 0.8025123476982117 0 0 0
-0.07398102432489395 -0.053073346614837646 0.8041415810585022 0 0 0
-0.07245845347642899 -0.053136195987463 0.8050938844680786 0 0 0
-0.07092122733592987 -0.0531909205019474 0.8059230446815491 81 81 83
-0.0693231001496315 -0.05320144444704056 0.8060824871063232 255 255 255
-0.06765425950288773 -0.05315691977739334 0.8054078817367554 255 255 255
-0.06600526720285416 -0.05312618985772133 0.80494225025177 255 255 255
-0.06437116861343384 -0.053106214851140976 0.8046396374702454 255 255 255
-0.06271149218082428 -0.05306357145309448 0.8039935231208801 255 255 255
-0.061013173311948776 -0.05298512428998947 0.8028048872947693 255 255 255
-0.05932542309165001 -0.05291186645627022 0.801694929599762 255 255 255
-0.05759808048605919 -0.05279823765158653 0.7999733090400696 255 255 255
-0.05585375055670738 -0.05266210809350014 0.797910749912262 255 255 255
-0.054116059094667435 -0.05252441018819809 0.795824408531189 255 255 255
-0.05237176641821861 -0.05237176641821861 0.7935115694999695 255 255 255
-0.05062410607933998 -0.05220611020922661 0.7910016775131226 255 255 255
-0.04882732406258583 -0.05197747051715851 0.7875374555587769 255 255 255
-0.047042809426784515 -0.05174709111452103 0.7840468287467957 255 255 255
-0.04538582265377045 -0.05164593458175659 0.7825141549110413 255 255 255
-0.043737199157476425 -0.05154740810394287 0.7810213565826416 255 255 255
-0.042089857161045074 -0.05144315958023071 0.7794418334960938 255 255 255
-0.04045692831277847 -0.051349177956581116 0.7780178785324097 255 255 255
-0.03885805606842041 -0.05129263177514076 0.7771611213684082 255 255 255
-0.03722643479704857 -0.05118635296821594 0.7755507826805115 255 255 255
-0.035576920956373215 -0.051045145839452744 0.7734113335609436 255 255 255
-0.03393453359603882 -0.05090179666876793 0.7712393403053284 255 255 255
-0.03231492638587952 -0.05078060179948807 0.7694030404090881 254 254 254
-0.030690336599946022 -0.05063905194401741 0.7672584056854248 255 255 255
-0.029062237590551376 -0.05047651752829552 0.76479572057724 255 255 255
-0.02745123580098152 -0.05032727122306824 0.7625343799591064 255 255 255
-0.025866804644465446 -0.050212033092975616 0.7607883810997009 255 255 255
-0.024271730333566666 -0.050060443580150604 0.758491575717926 255 255 255
-0.022664939984679222 -0.04986286908388138 0.7554979920387268 255 255 255
-0.02106468565762043 -0.049652472138404846 0.7523102164268494 255 255 255
-0.019484948366880417 -0.04946179315447807 0.7494211196899414 255 255 255
-0.017908627167344093 -0.049248721450567245 0.7461927533149719 255 255 255
-0.016337258741259575 -0.049011778086423874 0.7426027059555054 255 255 255
-0.014782629907131195 -0.04878268018364906 0.739131510257721 255 255 255
-0.013249699026346207 -0.048582226037979126 0.7360943555831909 255 255 255
-0.011733620427548885 -0.048401184380054474 0.7333512902259827 255 255 255
-0.010219767689704895 -0.04817890375852585 0.729983389377594 255 255 255
-0.008719255216419697 -0.04795590043067932 0.7266045808792114 255 255 255
