ply
format ascii 1.0
element vertex 661
property float x
property float y
property float z
property uchar red
property uchar green
property uchar blue
end_header
0.0422082282602787 -0.05085328593850136 0.2542664408683777 255 255 255
0.04233640804886818 -0.05040048062801361 0.25200241804122925 255 255 255
0.04248818755149841 -0.0499860979616642 0.2499305009841919 255 255 255
0.04272330179810524 -0.0496782585978508 0.2483912855386734 255 255 255
0.042861346155405045 -0.049265917390584946 0.24632959067821503 255 255 255
0.04306349158287048 -0.04893578588962555 0.24467892944812775 255 255 255
0.043148353695869446 -0.0484812967479229 0.24240648746490479 255 255 255
0.04328237101435661 -0.048091527074575424 0.24045762419700623 255 255 255
0.0433768592774868 -0.04766687750816345 0.23833438754081726 255 255 255
0.043384093791246414 -0.04715662822127342 0.23578312993049622 255 255 255
0.043495818972587585 -0.04676969349384308 0.2338484823703766 255 255 255
0.04339540749788284 -0.04616532847285271 0.23082664608955383 255 255 255
0.043597280979156494 -0.04589187726378441 0.22945939004421234 255 255 255
0.04388536140322685 -0.045713916420936584 0.22856958210468292 255 255 255
-0.013446359895169735 -0.013723604381084442 0.06931113451719284 255 255 255
-0.01377478614449501 -0.014205248095095158 0.0717436745762825 255 255 255
-0.013705294579267502 -0.01428235974162817 0.0721331313252449 255 255 255
-0.013651235960423946 -0.01437736488878727 0.0726129561662674 255 255 255
-0.013873115181922913 -0.014768156222999096 0.0745866447687149 255 255 255
-0.014005412347614765 -0.015071040950715542 0.07611636817455292 255 255 255
-0.014204248785972595 -0.0154529744759202 0.0780453234910965 255 255 255
-0.01441598404198885 -0.015857582911849022 0.08008880168199539 255 255 255
-0.014586168341338634 -0.016225064173340797 0.08194476366043091 255 255 255
-0.014786615036427975 -0.016634942963719368 0.08401486277580261 255 255 255
-0.015002207830548286 -0.017071478068828583 0.08621958643198013 255 255 255
-0.01523809414356947 -0.01754152588546276 0.08859357237815857 255 255 255
-0.015500130131840706 -0.018053092062473297 0.09117723256349564 255 255 255
-0.015739137306809425 -0.01854969561100006 0.0936853364109993 255 255 255
-0.01603633351624012 -0.019127676263451576 0.09660442173480988 255 255 255
-0.01640743762254715 -0.01980898156762123 0.10004536062479019 255 255 255
-0.016702979803085327 -0.020414752885699272 0.10310481488704681 255 255 255
-0.017069635912775993 -0.021123673766851425 0.10668522119522095 255 255 255
-0.01735757291316986 -0.021751893684267998 0.10985805094242096 255 255 255
-0.017651543021202087 -0.022403880953788757 0.11315091699361801 255 255 255
-0.01800433173775673 -0.0231484267860651 0.11691123992204666 255 255 255
-0.0184163935482502 -0.02398977428674698 0.12116047739982605 255 255 255
-0.018738161772489548 -0.0247343722730875 0.12492107599973679 255 255 255
-0.019094368442893028 -0.025545168668031693 0.1290159970521927 255 255 255
-0.019363228231668472 -0.02625972032546997 0.13262484967708588 255 255 255
-0.019695177674293518 -0.027080869302153587 0.1367720663547516 255 255 255
-0.020152075216174126 -0.02809937298297882 0.14191602170467377 255 255 255
-0.02028420940041542 -0.028687667101621628 0.14488720893859863 255 255 255
-0.020485015586018562 -0.029391545802354813 0.14844214916229248 255 255 255
-0.02068093791604042 -0.030109012499451637 0.1520657241344452 255 255 255
-0.020884620025753975 -0.030859364196658134 0.15585537254810333 255 255 255
-0.02116484008729458 -0.03174725919961929 0.16033969819545746 255 255 255
-0.021758493036031723 -0.03313986212015152 0.16737303137779236 255 255 255
-0.022407297044992447 -0.03466128930449486 0.17505700886249542 255 255 255
-0.023179378360509872 -0.03642474114894867 0.1839633285999298 255 255 255
-0.02253616973757744 -0.03598517179489136 0.1817432940006256 255 255 255
-0.0738227367401123 -0.11981067061424255 0.605104386806488 255 255 255
-0.11999999731779099 -0.1979999989271164 1.0 255 255 255
-0.11224234104156494 -0.18833883106708527 0.9512062668800354 0 0 0
-0.11024969071149826 -0.18818479776382446 0.950428307056427 0 0 0
-0.10833080857992172 -0.18815352022647858 0.9502702951431274 0 0 0
-0.10648451745510101 -0.18824942409992218 0.9507546424865723 0 0 0
-0.10467714071273804 -0.18841883540153503 0.9516103267669678 253 253 253
-0.10259702056646347 -0.18809454143047333 0.9499724507331848 255 255 255
-0.10054201632738113 -0.1878049075603485 0.9485095739364624 255 255 255
-0.09852605313062668 -0.18757843971252441 0.9473658800125122 255 255 255
-0.09647499769926071 -0.1872749924659729 0.9458333253860474 255 255 255
-0.09443435072898865 -0.1869800090789795 0.9443435072898865 255 255 255
-0.0923861414194107 -0.18665771186351776 0.9427157044410706 255 255 255
-0.09031657874584198 -0.18627795577049255 0.940797746181488 255 255 255
-0.08830786496400833 -0.1860101819038391 0.9394453167915344 255 255 255
-0.08629031479358673 -0.18571175634860992 0.9379382133483887 255 255 255
-0.08423846960067749 -0.18532463908195496 0.9359830617904663 255 255 255
-0.08218954503536224 -0.18492648005485535 0.9339721202850342 255 255 255
-0.08012736588716507 -0.18447928130626678 0.9317135214805603 255 255 255
-0.0781245157122612 -0.18415066599845886 0.9300538301467896 255 255 255
-0.07607534527778625 -0.18369413912296295 0.9277481436729431 255 255 255
-0.07403237372636795 -0.18323011696338654 0.9254046678543091 255 255 255
-0.07199253141880035 -0.18275026977062225 0.9229812026023865 255 255 255
-0.06996273249387741 -0.1822713166475296 0.920562207698822 255 255 255
-0.06789524853229523 -0.18166565895080566 0.9175033569335938 255 255 255
-0.06591954827308655 -0.1812787652015686 0.9155492782592773 255 255 255
-0.06394128501415253 -0.18086248636245728 0.9134469032287598 255 255 255
-0.06195782870054245 -0.1804066151380539 0.9111445546150208 255 255 255
-0.0599665641784668 -0.1798996925354004 0.9085842967033386 255 255 255
-0.05797061696648598 -0.17934659123420715 0.9057908654212952 255 255 255
-0.055924154818058014 -0.17859649658203125 0.9020025134086609 255 255 255
-0.053873736411333084 -0.17778334021568298 0.8978956341743469 255 255 255
-0.051807768642902374 -0.1768610030412674 0.8932374119758606 255 255 255
-0.04977724328637123 -0.17599810659885406 0.8888793587684631 255 255 255
-0.04777313396334648 -0.17516815662384033 0.8846876621246338 255 255 255
-0.04576876014471054 -0.17427334189414978 0.8801684379577637 255 255 255
-0.04377672076225281 -0.1733558177947998 0.8755344152450562 255 255 255
-0.04180891066789627 -0.17246174812316895 0.8710189461708069 255 255 255
-0.039848264306783676 -0.17152078449726105 0.8662666082382202 255 255 255
-0.03791895881295204 -0.17063531279563904 0.8617945313453674 255 255 255
-0.03599102422595024 -0.16967196762561798 0.8569291234016418 255 255 255
-0.03405323624610901 -0.16856351494789124 0.8513309359550476 255 255 255
-0.032149314880371094 -0.1675148457288742 0.846034586429596 255 255 255
-0.030261071398854256 -0.16643589735031128 0.8405853509902954 255 255 255
-0.028391525149345398 -0.1653388887643814 0.8350448608398438 255 255 255
-0.026568204164505005 -0.16439075767993927 0.8302564024925232 255 255 255
-0.02477225661277771 -0.16349688172340393 0.8257418870925903 255 255 255
-0.02299334667623043 -0.16259580850601196 0.8211909532546997 255 255 255
-0.021237658336758614 -0.16173292696475983 0.816832959651947 255 255 255
-0.01949503645300865 -0.16083405911922455 0.8122932314872742 255 255 255
-0.01778142899274826 -0.16003286838531494 0.8082467913627625 255 255 255
-0.016084278002381325 -0.15923435986042023 0.8042139410972595 255 255 255
-0.01438902597874403 -0.15827928483486176 0.7993903160095215 255 255 255
-0.012708339840173721 -0.15726570785045624 0.7942712306976318 255 255 255
-0.011054090224206448 -0.15633642673492432 0.7895779013633728 255 255 255
-0.009413237683475018 -0.15531842410564423 0.7844364643096924 255 255 255
-0.007792636752128601 -0.1542942076921463 0.7792636752128601 255 255 255
-0.006191821303218603 -0.15324757993221283 0.7739776372909546 255 255 255
-0.004609478171914816 -0.15211278200149536 0.7682463526725769 255 255 255
-0.00304926629178226 -0.15093868970870972 0.7623165845870972 255 255 255
-0.0015119628515094519 -0.14968432486057281 0.7559814453125 255 255 255
0.0 -0.14823667705059052 0.7486701011657715 255 255 255
0.00148286996409297 -0.14680412411689758 0.7414349913597107 255 255 255
0.002934910822659731 -0.14527808129787445 0.7337276935577393 255 255 255
0.004352181684225798 -0.1436220109462738 0.7253636717796326 255 255 255
0.005737892352044582 -0.1420128345489502 0.7172365188598633 255 255 255
0.00708369305357337 -0.1402571201324463 0.7083693146705627 255 255 255
0.008388953283429146 -0.13841772079467773 0.6990794539451599 255 255 255
0.009668215177953243 -0.1367361843585968 0.6905868053436279 255 255 255
0.01090191025286913 -0.13491113483905792 0.6813693642616272 255 255 255
0.012096906080842018 -0.13306596875190735 0.6720502972602844 255 255 255
0.013271774165332317 -0.1313905566930771 0.6635887026786804 255 255 255
0.014394714497029781 -0.12955242395401 0.6543052196502686 255 255 255
0.015484676696360111 -0.12774857878684998 0.6451948285102844 255 255 255
0.01656237803399563 -0.1261288821697235 0.6370145678520203 255 255 255
0.01758311316370964 -0.12433772534132004 0.6279683113098145 255 255 255
0.01856701262295246 -0.12254228442907333 0.6189004182815552 255 255 255
0.019519656896591187 -0.12077787518501282 0.6099892854690552 255 255 255
0.020399246364831924 -0.11879561841487885 0.5999778509140015 255 255 255
0.0212553683668375 -0.11690453439950943 0.5904269218444824 255 255 255
0.022076983004808426 -0.11503269523382187 0.580973207950592 255 255 255
0.022836705669760704 -0.11304169148206711 0.5709176659584045 255 255 255
0.02360253594815731 -0.11126908659934998 0.5619651079177856 255 255 255
0.02431957982480526 -0.10943811386823654 0.5527177453041077 253 253 253
0.02488080784678459 -0.10709565132856369 0.5408871173858643 240 240 241
0.02532315067946911 -0.10445799678564072 0.5275656580924988 162 164 167
0.025774987414479256 -0.1020689532160759 0.5154997706413269 0 0 0
0.026254188269376755 -0.09996787458658218 0.5048882365226746 0 0 0
0.02683543786406517 -0.09839659929275513 0.49695253372192383 0 0 0
0.027411285787820816 -0.09691847115755081 0.4894872307777405 0 0 0
0.02801290526986122 -0.09563026577234268 0.4829811155796051 0 0 0
0.02856837958097458 -0.09427565336227417 0.4761396646499634 0 0 0
0.029030034318566322 -0.09270882606506348 0.4682263731956482 0 0 0
0.029450736939907074 -0.09111321717500687 0.4601677656173706 0 0 0
0.029907550662755966 -0.0897226482629776 0.45314469933509827 0 0 0
0.030423860996961594 -0.08858712762594223 0.4474097192287445 0 0 0
0.031073017045855522 -0.08789224922657013 0.4439002573490143 0 0 0
0.0317196287214756 -0.08722898364067078 0.44055041670799255 0 0 0
0.03231038525700569 -0.08645211160182953 0.4366268217563629 0 0 0
0.03290686383843422 -0.08573104441165924 0.4329850375652313 0 0 0
0.03348137438297272 -0.08499117195606232 0.4292483627796173 0 0 0
0.03397706151008606 -0.08409322798252106 0.42471328377723694 0 0 0
0.03444769233465195 -0.0831785798072815 0.420093834400177 0 0 0
0.03486247360706329 -0.0821758285164833 0.4150294363498688 0 0 0
0.035200878977775574 -0.08104388415813446 0.40931254625320435 0 0 0
0.03553004190325737 -0.07994259148836136 0.4037504494190216 0 0 0
0.035627331584692 -0.07838013023138046 0.3958592414855957 0 0 0
0.03566766530275345 -0.07676301896572113 0.38769200444221497 255 255 255
0.03595924749970436 -0.07574394345283508 0.3825451731681824 255 255 255
0.036234330385923386 -0.07473330944776535 0.3774409294128418 255 255 255
0.03660363331437111 -0.073954276740551 0.37350645661354065 255 255 255
0.03698856756091118 -0.07323736697435379 0.3698856830596924 255 255 255
0.0372646190226078 -0.07233720272779465 0.36533939838409424 255 255 255
0.03747881203889847 -0.07135389745235443 0.36037319898605347 255 255 255
0.03771854192018509 -0.0704553872346878 0.35583528876304626 255 255 255
0.03790716826915741 -0.06949648261070251 0.3509923219680786 255 255 255
0.038112837821245193 -0.06860310584306717 0.3464803397655487 255 255 255
0.038347139954566956 -0.06779226660728455 0.3423852026462555 255 255 255
0.038545478135347366 -0.06694740802049637 0.33811822533607483 255 255 255
0.03871678560972214 -0.06608554720878601 0.3337653875350952 255 255 255
0.03888866677880287 -0.06525386869907379 0.32956498861312866 255 255 255
0.03898979350924492 -0.06433316320180893 0.32491493225097656 255 255 255
0.039151158183813095 -0.06354040652513504 0.32091113924980164 255 255 255
0.039244405925273895 -0.0626644566655159 0.3164871633052826 255 255 255
0.039308372884988785 -0.061770301312208176 0.3119712173938751 255 255 255
0.03939101845026016 -0.06093297898769379 0.30774232745170593 255 255 255
0.03949860483407974 -0.060159411281347275 0.3038354218006134 255 255 255
0.03960379213094711 -0.05940568447113037 0.3000287115573883 255 255 255
0.039729394018650055 -0.05870462954044342 0.2964880168437958 255 255 255
0.03976435214281082 -0.05789221450686455 0.29238492250442505 255 255 255
0.03983189910650253 -0.057150114327669144 0.2886369526386261 255 255 255
0.039939671754837036 -0.0564861036837101 0.2852833569049835 255 255 255
0.040081024169921875 -0.055887628346681595 0.2822607457637787 255 255 255
0.040228378027677536 -0.05531402304768562 0.279363751411438 255 255 255
0.04046934098005295 -0.05488307401537895 0.2771872580051422 255 255 255
0.040696632117033005 -0.05444549024105072 0.2749772369861603 255 255 255
0.040969118475914 -0.05407923832535744 0.2731274664402008 255 255 255
0.04115607589483261 -0.05361119657754898 0.270763635635376 255 255 255
0.041406672447919846 -0.053237151354551315 0.26887449622154236 255 255 255
0.04172506928443909 -0.052958741784095764 0.2674683928489685 255 255 255
0.04201802983880043 -0.052655503153800964 0.26593688130378723 255 255 255
0.042201507836580276 -0.05222436785697937 0.26375943422317505 255 255 255
0.04222153127193451 -0.05160409212112427 0.26062673330307007 255 255 255
0.04239576682448387 -0.05118513107299805 0.2585107684135437 255 255 255
0.04250608757138252 -0.05070003494620323 0.25606077909469604 255 255 255
0.04264198988676071 -0.050256628543138504 0.25382137298583984 255 255 255
0.042796745896339417 -0.0498456209897995 0.2517455518245697 255 255 255
0.043023303151130676 -0.04952682554721832 0.25013548135757446 255 255 255
0.04317023232579231 -0.04912474751472473 0.2481047809123993 255 255 255
0.0433783121407032 -0.04880060255527496 0.2464676797389984 255 255 255
0.04346847906708717 -0.04835257679224014 0.24420493841171265 255 255 255
0.04361535981297493 -0.04797689989209175 0.24230755865573883 255 255 255
0.043717313557863235 -0.047560591250658035 0.24020500481128693 255 255 255
0.04371374100446701 -0.04703978821635246 0.23757468163967133 255 255 255
0.043825358152389526 -0.04665280133485794 0.23562021553516388 255 255 255
0.04370719566941261 -0.046032048761844635 0.2324850857257843 255 255 255
0.04387395456433296 -0.045721277594566345 0.23091554641723633 255 255 255
0.0441734604537487 -0.04555388167500496 0.2300701141357422 255 255 255
-0.013255179859697819 -0.013391830958425999 0.06832566857337952 255 255 255
-0.013440664857625961 -0.013720679096877575 0.0700034648180008 255 255 255
-0.01359633170068264 -0.014025689102709293 0.07155963778495789 255 255 255
-0.013553614728152752 -0.014130364172160625 0.07209369540214539 255 255 255
-0.013802033849060535 -0.014544079080224037 0.07420448213815689 255 255 255
-0.013955114409327507 -0.014865230768918991 0.07584301382303238 255 255 255
-0.014170398004353046 -0.015260428190231323 0.07785932719707489 255 255 255
-0.014409761875867844 -0.015690628439188004 0.08005423098802567 255 255 255
-0.014616810716688633 -0.016094915568828583 0.08211691677570343 255 255 255
-0.014845252968370914 -0.016532212495803833 0.08434803038835526 255 255 255
-0.015059680677950382 -0.01696377992630005 0.08654989302158356 255 255 255
-0.015301105566322803 -0.01743614301085472 0.08895991742610931 255 255 255
-0.015565451234579086 -0.01794605143368244 0.09156148135662079 255 255 255
-0.01581071875989437 -0.01844583824276924 0.09411142766475677 255 255 255
-0.016103098168969154 -0.0190132986754179 0.09700661897659302 255 255 255
-0.01647605188190937 -0.01969088986515999 0.10046372562646866 255 255 255
-0.016752317547798157 -0.020268235355615616 0.10340936481952667 255 255 255
-0.017099281772971153 -0.020946618169546127 0.10687050223350525 255 255 255
-0.017378516495227814 -0.021558159962296486 0.10999061167240143 255 255 255
-0.01769331842660904 -0.02223006822168827 0.11341871321201324 255 255 255
-0.01804748736321926 -0.022969529032707214 0.11719147115945816 255 255 255
-0.018498742952942848 -0.023853642866015434 0.12170226126909256 255 255 255
-0.01884585991501808 -0.024625256657600403 0.12563906610012054 255 255 255
-0.019210292026400566 -0.025440659373998642 0.1297992765903473 255 255 255
-0.01945069059729576 -0.026111885905265808 0.13322390615940094 255 255 255
-0.019750045612454414 -0.026882005855441093 0.13715308904647827 255 255 255
-0.02022445760667324 -0.02791544608771801 0.1424257457256317 255 255 255
-0.0204344242811203 -0.02860819175839424 0.14596016705036163 255 255 255
-0.020712928846478462 -0.02941836416721344 0.1500936895608902 255 255 255
-0.020982826128602028 -0.030239956453442574 0.1542854905128479 255 255 255
-0.021367857232689857 -0.03125447779893875 0.1594616174697876 255 255 255
-0.02176600880920887 -0.03231922537088394 0.1648939996957779 255 255 255
-0.02250250056385994 -0.03392684832215309 0.173096165060997 255 255 255
-0.022981802001595497 -0.0351908840239048 0.1795453280210495 255 255 255
-0.028333446010947227 -0.044074248522520065 0.22486862540245056 255 255 255
-0.09924400597810745 -0.1568695455789566 0.8003548383712769 255 255 255
-0.11764062941074371 -0.18899643421173096 0.9642674922943115 0 0 0
-0.11436142772436142 -0.186790332198143 0.9530118703842163 0 0 0
-0.11246371269226074 -0.1868041455745697 0.9530823230743408 0 0 0
-0.11040250211954117 -0.18654215335845947 0.9517457485198975 0 0 0
-0.10844604671001434 -0.18645109236240387 0.9512810707092285 246 246 246
-0.10653218626976013 -0.18643133342266083 0.9511802792549133 253 253 253
-0.10460855066776276 -0.18639343976974487 0.9509868621826172 255 255 255
-0.10247224569320679 -0.18596814572811127 0.9488170742988586 255 255 255
-0.10039252787828445 -0.18563145399093628 0.9470992684364319 255 255 255
-0.09835701435804367 -0.18536515533924103 0.9457405805587769 255 255 255
-0.09631667286157608 -0.18507909774780273 0.9442811012268066 255 255 255
-0.09425406903028488 -0.18473796546459198 0.9425406455993652 255 255 255
-0.09220590442419052 -0.18441180884838104 0.9408765435218811 255 255 255
-0.09011807292699814 -0.18399105966091156 0.9387298822402954 255 255 255
-0.08809958398342133 -0.18369700014591217 0.9372296333312988 255 255 255
-0.08608041703701019 -0.18338869512081146 0.9356566667556763 255 255 255
-0.08404675871133804 -0.18303516507148743 0.9338529109954834 255 255 255
-0.08199403434991837 -0.18262307345867157 0.9317504167556763 255 255 255
-0.0799412950873375 -0.18219178915023804 0.9295499324798584 255 255 255
-0.07796835154294968 -0.1819261610507965 0.9281947016716003 255 255 255
-0.0759560689330101 -0.18155352771282196 0.9262934923171997 255 255 255
-0.07395170629024506 -0.18118168413639069 0.9243963360786438 255 255 255
-0.07194097340106964 -0.1807747483253479 0.9223201274871826 255 255 255
-0.06991485506296158 -0.18030674755573273 0.9199323654174805 255 255 255
-0.06784237176179886 -0.17969061434268951 0.9167888164520264 255 255 255
-0.06585630029439926 -0.1792754828929901 0.9146708250045776 255 255 255
-0.06386511027812958 -0.17882230877876282 0.9123587608337402 255 255 255
-0.06188291683793068 -0.17836840450763702 0.9100428819656372 255 255 255
-0.059898048639297485 -0.17787905037403107 0.9075461626052856 255 255 255
-0.057908330112695694 -0.17734424769878387 0.9048176407814026 255 255 255
-0.05587794631719589 -0.1766464114189148 0.9012571573257446 255 255 255
-0.05384846776723862 -0.1759050041437149 0.897474467754364 255 255 255
-0.051803719252347946 -0.17506083846092224 0.8931675553321838 255 255 255
-0.04979192838072777 -0.17427174746990204 0.8891415596008301 255 255 255
-0.04779914766550064 -0.17349320650100708 0.8851694464683533 255 255 255
-0.04581095278263092 -0.17267204821109772 0.8809798359870911 255 255 255
-0.04383165389299393 -0.17182008922100067 0.8766331076622009 255 255 255
-0.04187794402241707 -0.1710016131401062 0.8724572062492371 255 255 255
-0.03991130739450455 -0.17005687952041626 0.8676371574401855 255 255 255
-0.037974052131175995 -0.16915713250637054 0.8630466461181641 255 255 255
-0.03604291379451752 -0.1682002693414688 0.8581646680831909 255 255 255
-0.034108348190784454 -0.16713091731071472 0.8527087569236755 255 255 255
-0.03220473229885101 -0.16610859334468842 0.8474928736686707 255 255 255
-0.03031337633728981 -0.16503949463367462 0.8420382142066956 255 255 255
-0.02843726985156536 -0.16393250226974487 0.8363902568817139 255 255 255
-0.026622820645570755 -0.16306477785110474 0.8319631218910217 255 255 255
-0.02482256293296814 -0.1621740758419037 0.8274187445640564 255 255 255
-0.023038432002067566 -0.16126900911331177 0.8228011131286621 255 255 255
-0.02127748169004917 -0.16039948165416718 0.818364679813385 255 255 255
-0.0195274967700243 -0.15947455167770386 0.8136456608772278 255 255 255
-0.01780063845217228 -0.1585875153541565 0.8091199398040771 255 255 255
-0.016100483015179634 -0.15778473019599915 0.8050241470336914 255 255 255
-0.014405791647732258 -0.15686306357383728 0.8003217577934265 255 255 255
-0.012723306193947792 -0.15586049854755402 0.7952066659927368 255 255 255
-0.011065780185163021 -0.15492093563079834 0.7904129028320312 255 255 255
-0.009421751834452152 -0.15388861298561096 0.7851459980010986 255 255 255
-0.0077993059530854225 -0.152866393327713 0.779930591583252 255 255 255
-0.006197331938892603 -0.1518346220254898 0.7746664881706238 255 255 255
-0.0046134875155985355 -0.15070727467536926 0.7689146399497986 255 255 255
-0.0030522216111421585 -0.14955885708332062 0.7630553841590881 255 255 255
-0.0015135961584746838 -0.14833243191242218 0.7567980885505676 255 255 255
0.0 -0.14691708981990814 0.7495769262313843 255 255 255
0.0014848504215478897 -0.1455153375864029 0.7424252033233643 255 255 255
0.0029391704592853785 -0.14401935040950775 0.7347925901412964 255 255 255
0.004358853679150343 -0.1423892229795456 0.7264756560325623 255 255 255
0.005747887771576643 -0.14082324504852295 0.718485951423645 255 255 255
0.007098367903381586 -0.13912799954414368 0.7098367810249329 255 255 255
0.00840867031365633 -0.13734163343906403 0.7007225751876831 255 255 255
0.009692019782960415 -0.13568826019763947 0.6922870874404907 255 255 255
0.010929818265140057 -0.1338902711868286 0.6831136345863342 255 255 255
0.01213008351624012 -0.13208313286304474 0.6738935112953186 255 255 255
0.013309537433087826 -0.13043347001075745 0.66547691822052 255 255 255
0.014433261938393116 -0.1285872459411621 0.6560573577880859 255 255 255
0.015520026907324791 -0.12674689292907715 0.6466677784919739 255 255 255
0.016592755913734436 -0.12508384883403778 0.6381829380989075 255 255 255
0.017605772241950035 -0.1232404038310051 0.6287775635719299 255 255 255
0.01858525164425373 -0.1214236468076706 0.6195083856582642 255 255 255
0.019542032852768898 -0.11969494819641113 0.6106885075569153 255 255 255
0.020434701815247536 -0.1178000420331955 0.6010206341743469 255 255 255
0.021310696378350258 -0.11602490395307541 0.5919637680053711 255 255 255
0.022159168496727943 -0.11429466307163239 0.5831360220909119 255 255 255
0.02295820601284504 -0.11249521374702454 0.5739551782608032 255 255 255
0.023742057383060455 -0.11079627275466919 0.5652871131896973 255 255 255
0.024468528106808662 -0.10899617522954941 0.5561029314994812 255 255 255
0.025154959410429 -0.10718199610710144 0.5468469262123108 255 255 255
0.02582062967121601 -0.10543423146009445 0.5379297733306885 255 255 255
0.026363680139183998 -0.10334562510251999 0.5272735953330994 242 242 243
0.026853134855628014 -0.101215660572052 0.5164064168930054 198 199 201
0.0273362435400486 -0.09922043979167938 0.5062267184257507 0 0 0
0.027788298204541206 -0.0972590371966362 0.49621960520744324 0 0 0
0.02821977250277996 -0.09536336362361908 0.4865477979183197 0 0 0
0.028735728934407234 -0.09387005120515823 0.478928804397583 0 0 0
0.029156304895877838 -0.09217154234647751 0.47026297450065613 0 0 0
0.029565196484327316 -0.09054341912269592 0.4619562029838562 0 0 0
0.03007800318300724 -0.08932255208492279 0.45572730898857117 0 0 0
0.030627122148871422 -0.08827817440032959 0.45039886236190796 0 0 0
0.031352005898952484 -0.08778562396764755 0.44788581132888794 0 0 0
0.031985219568014145 -0.08707086741924286 0.44423913955688477 0 0 0
0.03254960477352142 -0.08621247857809067 0.4398595690727234 0 0 0
0.0330946147441864 -0.08534927666187286 0.43545547127723694 0 0 0
0.03362413868308067 -0.08449141681194305 0.4310786724090576 0 0 0
0.034109871834516525 -0.08356917649507523 0.42637336254119873 0 0 0
0.03459976613521576 -0.08270188421010971 0.4219483733177185 0 0 0
0.03507198020815849 -0.08183461427688599 0.4175235629081726 0 0 0
0.035510990768671036 -0.08093202859163284 0.4129185080528259 0 0 0
0.03594830632209778 -0.08006668835878372 0.4085035026073456 0 0 0
0.036299947649240494 -0.07905321568250656 0.40333274006843567 0 0 0
0.03648887947201729 -0.07773718237876892 0.3966182768344879 0 0 0
0.036593057215213776 -0.07630041241645813 0.3892878293991089 255 255 255
0.036767907440662384 -0.07506780326366425 0.3829990029335022 255 255 255
0.03696322813630104 -0.07392645627260208 0.37717577815055847 255 255 255
0.037251755595207214 -0.07301343977451324 0.37251755595207214 255 255 255
0.03750922530889511 -0.07207655161619186 0.3677375018596649 255 255 255
0.03773079067468643 -0.07110803574323654 0.3627960681915283 255 255 255
0.03797787427902222 -0.07022324204444885 0.35828185081481934 255 255 255
0.03818994015455246 -0.06930766999721527 0.3536105751991272 255 255 255
0.03842443972826004 -0.06846535950899124 0.34931308031082153 255 255 255
0.03865982964634895 -0.06765469163656235 0.34517702460289 255 255 255
0.03884001821279526 -0.06677757948637009 0.3407019376754761 255 255 255
0.038992468267679214 -0.0658838301897049 0.336141973733902 255 255 255
0.039165228605270386 -0.06505411863327026 0.3319087326526642 255 255 255
0.0392770990729332 -0.06415259838104248 0.32730916142463684 255 255 255
0.039435263723134995 -0.06335501372814178 0.32323986291885376 255 255 255
0.03953379765152931 -0.06248890608549118 0.3188209533691406 255 255 255
0.03960205614566803 -0.06160319969058037 0.3143020272254944 255 255 255
0.0396810807287693 -0.06076165288686752 0.3100084364414215 255 255 255
0.039784178137779236 -0.0599822998046875 0.3060321509838104 255 255 255
0.03988318890333176 -0.05922049656510353 0.302145391702652 255 255 255
0.03999127820134163 -0.05849470943212509 0.29844239354133606 255 255 255
0.04001117870211601 -0.05766316503286362 0.2941998243331909 255 255 255
0.04007420688867569 -0.056916993111371994 0.29039281606674194 255 255 255
0.040181905031204224 -0.05625466629862785 0.28701359033584595 255 255 255
0.040322765707969666 -0.05565677583217621 0.283963143825531 255 255 255
0.04047204181551933 -0.05508694425225258 0.28105583786964417 255 255 255
0.04071296751499176 -0.0546557642519474 0.27885594964027405 255 255 255
0.04094155877828598 -0.05421990156173706 0.276632159948349 255 255 255
0.041222453117370605 -0.0538640059530735 0.2748163640499115 255 255 255
0.04141692444682121 -0.053406037390232086 0.272479772567749 255 255 255
0.04167785868048668 -0.05304454639554024 0.2706354558467865 255 255 255
0.04201418533921242 -0.05278705433011055 0.2693217098712921 255 255 255
0.042331892997026443 -0.05251298472285271 0.26792338490486145 255 255 255
0.042532917112112045 -0.05210282281041145 0.26583072543144226 255 255 255
0.04256245121359825 -0.05149530619382858 0.2627311646938324 255 255 255
0.042742203921079636 -0.05108214542269707 0.26062318682670593 255 255 255
0.04284941405057907 -0.05059328302741051 0.2581290006637573 255 255 255
0.04299364984035492 -0.050159256905317307 0.255914568901062 255 255 255
0.04315921291708946 -0.049760036170482635 0.253877729177475 255 255 255
0.043379925191402435 -0.04943293705582619 0.2522088587284088 255 255 255
0.04352828487753868 -0.04903186485171318 0.2501625716686249 255 255 255
0.04373650997877121 -0.04870656877756119 0.2485029101371765 255 255 255
0.04383071884512901 -0.04826303943991661 0.24623998999595642 255 255 255
0.043987490236759186 -0.04789748787879944 0.24437494575977325 255 255 255
0.04410772770643234 -0.04750062897801399 0.24235014617443085 255 255 255
0.044091250747442245 -0.04696676507592201 0.23962636291980743 255 255 255
0.04419246315956116 -0.04656840115785599 0.2375938892364502 255 255 255
0.04405086115002632 -0.04592536762356758 0.23431310057640076 255 255 255
0.0441877618432045 -0.04558316618204117 0.2325671762228012 255 255 255
0.04445355013012886 -0.04537966102361679 0.2315288931131363 255 255 255
-0.013118171133100986 -0.013118171133100986 0.0676194354891777 255 255 255
-0.013319999910891056 -0.01345875021070242 0.06937500089406967 255 255 255
-0.013571140356361866 -0.013856848701834679 0.07142705470323563 255 255 255
-0.013542775996029377 -0.0139749925583601 0.07203604280948639 255 255 255
-0.013795834966003895 -0.014389203861355782 0.07417115569114685 255 255 255
-0.013961076736450195 -0.014719830825924873 0.0758754163980484 255 255 255
-0.014190354384481907 -0.015125981532037258 0.07796897739171982 255 255 255
-0.014457084238529205 -0.015581524930894375 0.08031713962554932 255 255 255
-0.014683780260384083 -0.016003672033548355 0.08249314874410629 255 255 255
-0.014926545321941376 -0.016453122720122337 0.08480991423130035 255 255 255
-0.015145715326070786 -0.016886603087186813 0.08704434335231781 255 255 255
-0.015385330654680729 -0.017353219911456108 0.08944959193468094 255 255 255
-0.015644002705812454 -0.01785256713628769 0.09202354401350021 255 255 255
-0.015880079939961433 -0.018337709829211235 0.09452427923679352 255 255 255
-0.01614631898701191 -0.0188697949051857 0.09726697951555252 255 255 255
-0.016504205763339996 -0.019523268565535545 0.10063540190458298 255 255 255
-0.016779234632849693 -0.020093651488423347 0.10357552021741867 255 255 255
-0.017128661274909973 -0.020768502727150917 0.10705413669347763 255 255 255
-0.01742071658372879 -0.021389994770288467 0.11025770753622055 255 255 255
-0.017773030325770378 -0.02210235968232155 0.11392968893051147 255 255 255
-0.01816345565021038 -0.022881237789988518 0.11794452369213104 255 255 255
-0.018641866743564606 -0.02379290759563446 0.1226438581943512 255 255 255
-0.018995776772499084 -0.024567872285842896 0.1266385167837143 255 255 255
-0.019351009279489517 -0.02536551095545292 0.13075006008148193 255 255 255
-0.019608860835433006 -0.026055607944726944 0.13430726528167725 255 255 255
-0.019918888807296753 -0.02683516964316368 0.13832561671733856 255 255 255
-0.02039535902440548 -0.027864079922437668 0.1436292827129364 255 255 255
-0.020667018368840218 -0.028638582676649094 0.14762155711650848 255 255 255
-0.0209121685475111 -0.029398266226053238 0.1515374481678009 255 255 255
-0.021272478625178337 -0.030344564467668533 0.15641528367996216 255 255 255
-0.02171587571501732 -0.0314394012093544 0.1620587706565857 255 255 255
-0.022401444613933563 -0.03292333707213402 0.16970792412757874 255 255 255
-0.022875836119055748 -0.0341377817094326 0.1759679615497589 255 255 255
-0.0266974288970232 -0.040463291108608246 0.20857366919517517 255 255 255
-0.11119716614484787 -0.17120833694934845 0.8825172185897827 255 255 255
-0.11831565946340561 -0.18510675430297852 0.9541585445404053 0 0 0
-0.11601310968399048 -0.18447986245155334 0.9509271383285522 0 0 0
-0.11420625448226929 -0.18463343381881714 0.9517187476158142 0 0 0
-0.11235765367746353 -0.1847236007452011 0.9521834850311279 0 0 0
-0.11035912483930588 -0.18456611037254333 0.9513717293739319 253 253 253
-0.1082754135131836 -0.18425816297531128 0.9497843384742737 255 255 255
-0.10623924434185028 -0.18402154743671417 0.9485646486282349 255 255 255
-0.10423147678375244 -0.18382641673088074 0.9475588798522949 255 255 255
-0.10212139040231705 -0.18344028294086456 0.9455684423446655 255 255 255
-0.10005193948745728 -0.1831139177083969 0.9438862204551697 255 255 255
-0.09799743443727493 -0.18280290067195892 0.942283034324646 255 255 255
-0.09593592584133148 -0.18246637284755707 0.940548300743103 255 255 255
-0.09387316554784775 -0.18211393058300018 0.9387316703796387 255 255 255
-0.09184052050113678 -0.181806743144989 0.9371482133865356 255 255 255
-0.08979618549346924 -0.1814631223678589 0.9353769421577454 255 255 255
-0.08784117549657822 -0.18128922581672668 0.934480607509613 255 255 255
-0.08588551729917526 -0.18110641837120056 0.9335382580757141 255 255 255
-0.0839044600725174 -0.1808607131242752 0.9322717189788818 255 255 255
-0.08188415318727493 -0.18051733076572418 0.9305017590522766 255 255 255
-0.07985316216945648 -0.1801338791847229 0.9285251498222351 255 255 255
-0.07788623869419098 -0.17988012731075287 0.9272171258926392 255 255 255
-0.07586859911680222 -0.1794940084218979 0.9252268075942993 255 255 255
-0.0738573744893074 -0.17910411953926086 0.9232171773910522 255 255 255
-0.07184197753667831 -0.17868389189243317 0.921051025390625 255 255 255
-0.06980172544717789 -0.1781781017780304 0.9184437990188599 255 255 255
-0.06772986799478531 -0.17756208777427673 0.9152684807777405 255 255 255
-0.06585251539945602 -0.177435964345932 0.9146183133125305 255 255 255
-0.06392666697502136 -0.17716819047927856 0.9132381677627563 255 255 255
-0.061988405883312225 -0.17684927582740784 0.9115942120552063 255 255 255
-0.06001940369606018 -0.1764206737279892 0.9093849062919617 255 255 255
-0.058040082454681396 -0.17593398690223694 0.906876266002655 255 255 255
-0.05599293112754822 -0.17520369589328766 0.9031118154525757 255 255 255
-0.053930655121803284 -0.17437578737735748 0.898844301700592 245 245 245
-0.05185101926326752 -0.17343272268772125 0.8939831256866455 206 205 211
-0.049840010702610016 -0.17266005277633667 0.8900002241134644 201 199 203
-0.04786249250173569 -0.17195042967796326 0.8863424062728882 166 169 181
-0.045889027416706085 -0.17120136320590973 0.8824812769889832 166 169 181
-0.04392522573471069 -0.17042987048625946 0.8785044550895691 125 130 148
-0.04197603091597557 -0.16965313255786896 0.8745006918907166 134 140 150
-0.04002328962087631 -0.16879388689994812 0.870071530342102 126 130 140
-0.03809474781155586 -0.1679632067680359 0.8657897710800171 112 118 135
-0.036176178604364395 -0.1670994907617569 0.8613375425338745 133 138 150
-0.034249916672706604 -0.16611209511756897 0.8562479019165039 110 115 127
-0.0323546901345253 -0.16517920792102814 0.8514392375946045 87 106 126
-0.030472245067358017 -0.16421152651309967 0.8464512228965759 87 106 126
-0.02860659547150135 -0.16322587430477142 0.8413704633712769 99 109 124
-0.026782188564538956 -0.16236701607704163 0.8369433879852295 99 109 124
-0.02495797537267208 -0.1613948941230774 0.8319324851036072 127 131 142
-0.023138225078582764 -0.16031484305858612 0.8263651728630066 124 130 140
-0.021348919719457626 -0.15929578244686127 0.8211122751235962 147 147 152
-0.019589267671108246 -0.15834657847881317 0.8162194490432739 129 136 149
-0.017852675169706345 -0.15742811560630798 0.8114851713180542 165 167 177
-0.016144081950187683 -0.15659759938716888 0.8072040677070618 181 176 176
-0.01444317027926445 -0.15566527843475342 0.8023983836174011 194 192 194
-0.012755789794027805 -0.15466395020484924 0.7972368597984314 202 201 202
-0.011093631386756897 -0.15372604131698608 0.7924022674560547 240 240 241
-0.009445104748010635 -0.15269584953784943 0.7870920300483704 255 255 255
-0.007818304002285004 -0.15167509019374847 0.781830370426178 255 255 255
-0.0062118638306856155 -0.1506377011537552 0.7764829993247986 255 255 255
-0.004623338580131531 -0.1494879424571991 0.7705564498901367 255 255 255
-0.0030581147875636816 -0.1483185738325119 0.7645286917686462 255 255 255
-0.0015161833725869656 -0.1470697969198227 0.7580916881561279 255 255 255
0.0 -0.1456337571144104 0.7506894469261169 255 255 255
0.0014868867583572865 -0.1442280113697052 0.7434433698654175 255 255 255
0.002943134866654873 -0.14274203777313232 0.7357836961746216 255 255 255
0.0043645016849040985 -0.1411188840866089 0.7274169325828552 255 255 255
0.005755577236413956 -0.13957273960113525 0.719447135925293 255 255 255
0.0071091013960540295 -0.13791656494140625 0.7109101414680481 255 255 255
0.008422613143920898 -0.1361655741930008 0.701884388923645 255 255 255
0.009708925150334835 -0.1345379650592804 0.6934946775436401 255 255 255
0.010950200259685516 -0.13277117908000946 0.6843875050544739 255 255 255
0.012154979631304741 -0.13100366294384003 0.6752766370773315 255 255 255
0.013336393050849438 -0.129363015294075 0.66681969165802 255 255 255
0.014460043050348759 -0.12751127779483795 0.6572746634483337 255 255 255
0.015541273169219494 -0.12562528252601624 0.647553026676178 255 255 255
0.016603104770183563 -0.12388471513986588 0.6385809779167175 255 255 255
0.0176040418446064 -0.12197086960077286 0.6287158131599426 255 255 255
0.01857450231909752 -0.12011511623859406 0.6191501021385193 255 255 255
0.01952383667230606 -0.11836326122283936 0.6101198792457581 255 255 255
0.02040604129433632 -0.11643446981906891 0.6001777052879333 255 255 255
0.021273426711559296 -0.11464013159275055 0.5909284949302673 255 255 255
0.022126900032162666 -0.11296364665031433 0.5822868347167969 255 255 255
0.02295527420938015 -0.11133308708667755 0.5738818645477295 255 255 255
0.02378615364432335 -0.10986937582492828 0.566336989402771 255 255 255
0.024539580568671227 -0.10819724202156067 0.5577177405357361 255 255 255
0.025226464495062828 -0.10638988018035889 0.548401415348053 255 255 255
0.02591053396463394 -0.10472173988819122 0.5398027896881104 255 255 255
0.02653946913778782 -0.10297313332557678 0.5307893753051758 255 255 255
0.027140136808156967 -0.10125358402729034 0.521925687789917 255 255 255
0.027714760974049568 -0.09956784546375275 0.5132363438606262 246 246 246
0.02814321592450142 -0.09749612957239151 0.5025573968887329 196 197 199
0.028527159243822098 -0.09541842341423035 0.49184757471084595 0 0 0
0.028984272852540016 -0.09371580928564072 0.4830712080001831 0 0 0
0.029404453933238983 -0.09200748801231384 0.47426536679267883 0 0 0
0.02983497455716133 -0.09043726325035095 0.4661714732646942 0 0 0
0.030351050198078156 -0.08921369165182114 0.45986437797546387 0 0 0
0.03095468133687973 -0.08831188082695007 0.4552159011363983 0 0 0
0.03164132684469223 -0.08769167214632034 0.4520189166069031 0 0 0
0.03228135034441948 -0.08698029816150665 0.44835206866264343 0 0 0
0.03282693773508072 -0.0860598161816597 0.44360730051994324 0 0 0
0.033347491174936295 -0.08512386679649353 0.43878278136253357 0 0 0
0.03385151922702789 -0.08419480919837952 0.4339938759803772 0 0 0
0.034332092851400375 -0.0832553282380104 0.42915117740631104 0 0 0
0.034844353795051575 -0.08243663609027863 0.4249311089515686 0 0 0
0.035319581627845764 -0.08157140761613846 0.42047119140625 0 0 0
0.03577027842402458 -0.08069109171628952 0.4159334897994995 0 0 0
0.03625692054629326 -0.07993002980947495 0.41201046109199524 0 0 0
0.03669265657663345 -0.07909306138753891 0.4076961874961853 0 0 0
0.03707928955554962 -0.0781889334321022 0.4030357301235199 0 0 0
0.037431251257658005 -0.07725173234939575 0.3982048034667969 0 0 0
0.03759640082716942 -0.07597605884075165 0.3916291892528534 0 0 0
0.03749195858836174 -0.07421877235174179 0.3825710117816925 255 255 255
0.0376693531870842 -0.07307854294776917 0.3766935169696808 255 255 255
0.03770370036363602 -0.07171095907688141 0.3696441352367401 255 255 255
0.037941716611385345 -0.07077588886022568 0.36482417583465576 255 255 255
0.03823600336909294 -0.06997910141944885 0.3607170283794403 255 255 255
0.038491278886795044 -0.06914173811674118 0.356400728225708 255 255 255
0.03874289616942406 -0.0683283880352974 0.3522081673145294 255 255 255
0.038968779146671295 -0.06749948859214783 0.3479355275630951 255 255 255
0.03911298140883446 -0.06656068563461304 0.3430963158607483 255 255 255
0.03922313451766968 -0.065597303211689 0.3381304442882538 255 255 255
0.0393935963511467 -0.06476573646068573 0.33384403586387634 255 255 255
0.039507411420345306 -0.06387031823396683 0.3292284309864044 255 255 255
0.03968425467610359 -0.06310446560382843 0.3252807557582855 255 255 255
0.03980439901351929 -0.062274619936943054 0.3210031986236572 255 255 255
0.039883583784103394 -0.06140805408358574 0.3165363669395447 255 255 255
0.03995862230658531 -0.06056228652596474 0.31217673420906067 255 255 255
0.0400705561041832 -0.05979759991168976 0.3082350492477417 255 255 255
0.04017437621951103 -0.059044159948825836 0.3043513298034668 255 255 255
0.04026949405670166 -0.05830061063170433 0.30051860213279724 255 255 255
0.04027176648378372 -0.05744649097323418 0.2961159348487854 255 255 255
0.04031786695122719 -0.05667874217033386 0.29215845465660095 255 255 255
0.04040895402431488 -0.05599527060985565 0.28863540291786194 255 255 255
0.040545012801885605 -0.05539248511195183 0.2855282723903656 255 255 255
0.04070848971605301 -0.05484338104724884 0.2826978266239166 255 255 255
0.04096168279647827 -0.05442853271961212 0.2805594503879547 255 255 255
0.041196055710315704 -0.05400023236870766 0.27835172414779663 255 255 255
0.041489724069833755 -0.05366004258394241 0.27659815549850464 255 255 255
0.04169245436787605 -0.053212739527225494 0.2742924690246582 255 255 255
0.041961751878261566 -0.05286090821027756 0.2724789083003998 255 255 255
0.042304862290620804 -0.052609894424676895 0.2711850106716156 255 255 255
0.04263252392411232 -0.052346259355545044 0.26982608437538147 255 255 255
0.04283567890524864 -0.0519382581114769 0.2677229940891266 255 255 255
0.042873356491327286 -0.05134216696023941 0.2646503448486328 255 255 255
0.04307151585817337 -0.05095044523477554 0.2626311779022217 255 255 255
0.04318913444876671 -0.05047404393553734 0.260175496339798 255 255 255
0.043340280652046204 -0.05004770681262016 0.2579778730869293 255 255 255
0.043514788150787354 -0.04965805262327194 0.2559693455696106 255 255 255
0.04373514652252197 -0.04932917281985283 0.2542741000652313 255 255 255
0.043883923441171646 -0.04892805218696594 0.2522064447402954 255 255 255
0.044095929712057114 -0.04860574007034302 0.25054505467414856 255 255 255
0.04418768361210823 -0.048159610480070114 0.24824541807174683 255 255 255
0.0443497970700264 -0.04779922589659691 0.24638774991035461 255 255 255
0.04448939487338066 -0.04742276296019554 0.2444472312927246 255 255 255
0.04448096826672554 -0.04689841344952583 0.24174439907073975 255 255 255
0.044579777866601944 -0.04649718850851059 0.23967622220516205 255 255 255
0.04443151503801346 -0.04584953933954239 0.2363378405570984 255 255 255
0.04457361251115799 -0.04551200568675995 0.23459796607494354 255 255 255
0.04479651525616646 -0.0452631451189518 0.23331518471240997 255 255 255
-0.012980541214346886 -0.012846721336245537 0.06691000610589981 255 255 255
-0.013312233611941338 -0.013312233611941338 0.06933455169200897 255 255 255
-0.013579855673015118 -0.013722802512347698 0.07147292792797089 255 255 255
-0.013557836413383484 -0.013846301473677158 0.07211615145206451 255 255 255
-0.013801238499581814 -0.014246438629925251 0.07420020550489426 255 255 255
-0.013977172784507275 -0.014584874734282494 0.07596289366483688 255 255 255
-0.01421230286359787 -0.014993199147284031 0.07808957993984222 255 255 255
-0.014490432105958462 -0.01545646134763956 0.08050239831209183 255 255 255
-0.014728713780641556 -0.015887152403593063 0.08274558186531067 255 255 255
-0.01498483493924141 -0.016347091645002365 0.08514110743999481 255 255 255
-0.015212790109217167 -0.016786526888608932 0.08742982894182205 255 255 255
-0.015448647551238537 -0.01724500209093094 0.08981771767139435 255 255 255
-0.015700960531830788 -0.017732849344611168 0.09235858917236328 255 255 255
-0.015928685665130615 -0.018204212188720703 0.09481360763311386 255 255 255
-0.01615934446454048 -0.018690325319767 0.09734544157981873 255 255 255
-0.016487697139382362 -0.019302669912576675 0.10053473711013794 255 255 255
-0.016770554706454277 -0.019876213744282722 0.10352194309234619 255 255 255
-0.017133504152297974 -0.020560206845402718 0.10708440840244293 255 255 255
-0.01745430752635002 -0.02121029794216156 0.11047030240297318 255 255 255
-0.017860788851976395 -0.021982507780194283 0.11449223011732101 255 255 255
-0.01829550229012966 -0.02280997671186924 0.11880195885896683 255 255 255
-0.018781231716275215 -0.0237236600369215 0.12356072664260864 255 255 255
-0.019133394584059715 -0.02449074573814869 0.1275559663772583 255 255 255
-0.019480599090456963 -0.025272129103541374 0.13162566721439362 255 255 255
-0.01972915418446064 -0.025945190340280533 0.13513119518756866 255 255 255
-0.02008625492453575 -0.02678167261183262 0.1394878774881363 255 255 255
-0.020667068660259247 -0.027944205328822136 0.14554274082183838 255 255 255
-0.020954152569174767 -0.028737125918269157 0.1496725231409073 255 255 255
-0.021106405183672905 -0.029365433380007744 0.15294496715068817 255 255 255
-0.021522818133234978 -0.030385155230760574 0.15825600922107697 255 255 255
-0.022279057651758194 -0.03192223235964775 0.16626162827014923 255 255 255
-0.018819866701960564 -0.027374351397156715 0.142574742436409 255 255 255
-0.05562262982130051 -0.08215034753084183 0.4278663992881775 255 255 255
-0.12172956019639969 -0.18259434401988983 0.9510121941566467 0 0 0
-0.11912485957145691 -0.18152359127998352 0.9454354047775269 0 0 0
-0.1173778772354126 -0.18174639344215393 0.9465957880020142 0 0 0
-0.11563453823328018 -0.18198221921920776 0.9478240609169006 0 0 0
-0.1139313355088234 -0.18229013681411743 0.9494277834892273 229 230 230
-0.11191022396087646 -0.18209122121334076 0.9483917355537415 254 254 254
-0.10988297313451767 -0.18187525868415833 0.9472669959068298 255 255 255
-0.10786456614732742 -0.18166664242744446 0.9461804032325745 255 255 255
-0.10583827644586563 -0.18143704533576965 0.9449846148490906 255 255 255
-0.10383908450603485 -0.18124639987945557 0.9439916610717773 255 255 255
-0.10180739313364029 -0.18099091947078705 0.9426610469818115 255 255 255
-0.0997798889875412 -0.18073338270187378 0.9413197040557861 255 255 255
-0.09772483259439468 -0.1804150640964508 0.9396618604660034 255 255 255
-0.09565440565347672 -0.18005535006523132 0.9377882480621338 255 255 255
-0.09360979497432709 -0.17973080277442932 0.9360979199409485 255 255 255
-0.09158661961555481 -0.17943499982357025 0.934557318687439 255 255 255
-0.0895669162273407 -0.1791338324546814 0.932988703250885 255 255 255
-0.08762196451425552 -0.178972527384758 0.9321485757827759 255 255 255
-0.08568517118692398 -0.17882122099399567 0.9313606023788452 255 255 255
-0.08372176438570023 -0.17860643565654755 0.9302418231964111 255 255 255
-0.08172833174467087 -0.1783163696527481 0.9287310838699341 255 255 255
-0.07970370352268219 -0.1779431402683258 0.926787257194519 255 255 255
-0.07774967700242996 -0.1777135580778122 0.9255914688110352 255 255 255
-0.07573109865188599 -0.17732159793376923 0.923550009727478 255 255 255
-0.07370072603225708 -0.17688176035881042 0.9212591648101807 255 255 255
-0.07168346643447876 -0.17645159363746643 0.9190187454223633 255 255 255
-0.06979812681674957 -0.17633210122585297 0.9183964133262634 255 255 255
-0.06789050251245499 -0.17614832520484924 0.9174392223358154 255 255 255
-0.06595613807439804 -0.17588303983211517 0.9160575270652771 255 255 255
-0.06393241882324219 -0.17535747587680817 0.9133202433586121 244 244 245
-0.061869312077760696 -0.17468981444835663 0.909842848777771 202 203 208
-0.05981900915503502 -0.17401891946792603 0.9063485860824585 163 164 171
